16.367524    -9.705060    2.810903
17.387330    -9.469512    2.729345
22.779740    -11.345973    3.260985
48.039898    -21.789496    6.254635
16.353366    -9.696665    2.102980
17.478903    -9.526505    2.003420
27.350665    -13.635142    2.788800
27.352943    -12.422617    2.456683
27.365847    -13.654639    1.672394
17.396888    -9.528243    5.828819
9.540938    -5.701416    2.932469
9.595366    -5.255364    2.767912
17.373855    -9.520753    4.234561
17.951642    -10.720205    3.880530
17.361053    -9.516889    3.474608
16.207719    -9.677634    2.788545
17.372961    -9.530911    2.731666
22.763439    -11.425151    3.263654
47.915926    -21.910759    6.247217
16.234787    -9.693796    2.091546
17.401624    -9.553750    1.997913
27.325611    -13.727481    2.790527
27.347325    -12.521413    2.459617
27.340777    -13.747054    1.673431
15.805732    -9.518162    5.639439
17.343213    -9.568131    5.820643
9.537486    -5.739135    2.936806
9.577500    -5.283840    2.767421
17.359118    -9.582044    4.238115
17.874852    -10.748882    3.871041
17.368849    -9.590580    3.482041
16.161843    -9.717627    2.785768
17.325430    -9.574104    2.728798
22.757490    -11.509707    3.267848
48.110010    -22.178223    6.281363
16.082309    -9.669806    2.075714
17.346110    -9.592647    1.994909
27.389988    -13.865224    2.801432
27.366697    -12.631987    2.464833
27.360822    -13.862460    1.677253
15.728211    -9.537353    5.622193
9.522314    -5.769872    2.937571
9.562091    -5.313670    2.767667
9.328371    -5.648573    2.445012
17.309982    -9.624326    4.233307
17.334180    -9.640948    3.481004
48.040258    -24.450280    8.929612
16.082027    -9.736936    2.777146
17.315884    -9.638294    2.731939
22.731793    -11.584426    3.269246
47.799495    -22.213142    6.249689
16.015156    -9.696449    2.070877
17.375707    -9.678743    2.001718
27.383693    -13.967743    2.805158
27.362152    -12.731866    2.467930
27.326168    -13.950422    1.677745
15.702957    -9.588054    5.623655
9.490536    -5.790497    2.933235
9.546590    -5.343455    2.767912
9.444351    -5.289044    2.313656
17.825352    -10.868594    3.874691
17.334595    -9.710933    3.487054
17.623779    -9.037875    3.281006
15.873853    -9.677574    2.746312
17.258581    -9.675870    2.727569
22.700556    -11.656377    3.269882
15.916591    -9.703629    2.061971
17.329443    -9.722755    1.999815
27.383227    -14.073539    2.809520
27.360860    -12.833527    2.471353
27.335626    -14.061139    1.680966
15.609108    -9.596616    5.600562
18.553132    -9.554083    5.908765
9.514951    -5.364148    2.763497
9.273580    -5.693451    2.439761
9.451930    -5.331446    2.319509
17.643616    -10.832179    3.842392
17.334745    -9.781009    3.493104
17.579317    -9.083296    3.277901
15.806992    -9.703456    2.739882
17.201212    -9.713186    2.723199
22.670856    -11.729157    3.270772
15.852016    -9.731095    2.057464
17.343711    -9.800840    2.004922
27.319581    -14.146951    2.807430
27.331271    -12.922095    2.472250
27.327820    -14.163317    1.683150
18.521171    -9.609629    5.907947
9.493390    -5.390442    2.762025
18.471213    -9.601309    5.052839
17.717006    -10.952219    4.669938
9.478892    -5.385055    2.330169
18.437575    -9.592410    4.231496
17.356035    -9.863344    3.503475
17.511988    -9.116685    3.270547
15.742647    -9.730580    2.733890
17.090387    -9.719877    2.710362
22.655874    -11.809659    3.273822
15.838151    -9.789612    2.059552
17.336909    -9.867292    2.007626
22.603638    -11.792968    2.326514
27.332885    -13.025608    2.475999
27.345311    -14.278981    1.686918
16.703850    -9.552501    5.654580
17.898125    -9.356167    5.718335
9.305972    -5.321845    2.712235
17.975937    -9.414028    4.925233
17.688291    -11.009617    4.671250
9.447898    -5.405854    2.326615
18.333422    -9.609807    4.214338
17.478694    -9.167619    3.269566
15.549780    -9.677426    2.705540
17.009770    -9.743214    2.702305
18.433367    -9.680659    2.667940
15.820701    -9.846035    2.061202
17.312598    -9.923898    2.008327
18.475416    -9.711382    1.904668
27.381737    -13.152125    2.484068
9.223780    -5.788514    3.328476
16.681947    -9.608012    5.657118
17.854012    -9.402964    5.713431
9.260664    -5.807381    2.883999
9.293801    -5.352789    2.713461
17.906574    -9.447819    4.914147
17.622186    -11.043624    4.662718
9.396529    -5.414795    2.318045
17.844610    -9.423488    4.108601
17.262762    -9.950961    3.496907
17.468802    -9.230879    3.272998
15.468882    -9.693045    2.696626
16.728379    -9.650313    2.662292
17.959075    -9.501982    2.603501
15.743253    -9.864970    2.055045
17.309643    -9.992884    2.011531
18.131348    -9.601637    1.872226
27.349332    -13.239977    2.484801
9.210829    -5.819849    3.330230
16.494706    -9.567682    5.603549
17.747735    -9.416657    5.688640
9.249345    -5.839895    2.886040
9.272304    -5.378359    2.711990
17.711893    -9.414682    4.868623
17.567591    -11.084619    4.657248
9.368877    -5.437217    2.315328
17.793989    -9.466685    4.103613
17.319887    -10.054810    3.514711
17.438660    -9.283502    3.272671
15.448275    -9.746264    2.698233
16.679850    -9.690642    2.659288
17.769657    -9.471654    2.580241
15.752423    -9.938150    2.060212
17.336535    -10.079448    2.018240
17.718715    -9.452842    1.832604
27.370389    -13.353977    2.490425
9.268779    -5.896331    3.357707
16.397342    -9.578558    5.580430
17.541413    -9.376265    5.631702
9.239545    -5.873431    2.888591
9.257434    -5.407758    2.712480
17.601540    -9.425395    4.846216
17.571388    -11.162531    4.667312
9.348774    -5.463961    2.314492
17.566216    -9.414766    4.057727
17.314467    -10.122812    3.519897
17.389229    -9.325769    3.268749
15.343981    -9.746405    2.685227
16.629520    -9.729763    2.656010
17.740514    -9.526126    2.580241
15.770520    -10.017340    2.066589
17.335581    -10.150185    2.021745
17.671210    -9.497257    1.830695
27.401738    -13.473508    2.497027
9.252255    -5.925771    3.358292
17.456652    -9.399930    5.613721
9.241842    -5.914780    2.894968
9.255005    -5.444491    2.716650
9.814314    -5.294245    2.706625
9.270445    -5.456406    2.299233
17.498448    -9.447665    4.048750
17.189966    -10.120916    3.500882
17.403069    -9.402053    3.276757
48.186646    -23.816632    8.383567
15.217331    -9.731609    2.668276
16.494611    -9.718880    2.639213
17.425921    -9.426189    2.538680
15.730503    -10.059786    2.065379
17.325786    -10.215956    2.024249
17.534274    -9.493109    1.819518
27.377241    -13.565919    2.498576
9.238855    -5.957238    3.360045
17.422656    -9.450689    5.612087
9.241534    -5.954627    2.900581
9.239925    -5.473848    2.717140
9.799734    -5.325258    2.707097
14.827217    -9.547444    3.953892
9.372276    -5.555127    2.328706
9.543857    -5.190744    2.211909
17.291848    -10.252471    3.528021
17.368075    -9.452099    3.275613
15.112544    -9.730051    2.655124
16.390597    -9.725460    2.627332
17.394307    -9.478183    2.538299
15.738844    -10.133288    2.070547
17.209667    -10.218772    2.014335
17.446489    -9.514912    1.813429
27.364025    -13.664096    2.501184
9.266256    -6.015235    3.376707
17.398647    -9.506865    5.613721
9.237823    -5.992424    2.905173
9.436224    -5.629318    2.779930
9.512277    -5.206916    2.632090
14.812594    -9.602443    3.957830
9.196485    -5.489128    2.289201
9.527886    -5.220000    2.211909
17.334670    -9.502968    3.274796
48.123491    -24.153956    8.398207
14.831092    -9.613332    2.610845
16.234824    -9.700498    2.607121
17.367755    -9.532935    2.538680
15.674319    -10.159901    2.066149
17.060388    -10.201057    2.000516
17.381428    -9.548733    1.809703
27.362041    -13.768143    2.504851
9.231748    -6.033172    3.370860
17.380357    -9.566229    5.617263
9.219395    -6.020737    2.905173
9.429712    -5.664732    2.783119
9.506470    -5.241705    2.634920
9.229712    -6.023569    2.471046
9.119253    -5.481045    2.274151
9.496385    -5.240684    2.208318
17.327887    -9.568505    3.279045
47.957467    -24.255107    8.382179
14.789931    -9.651220    2.608799
16.102279    -9.688462    2.590597
17.347974    -9.591454    2.540078
15.650567    -10.212830    2.067138
17.012816    -10.243598    1.998614
17.345082    -9.598156    1.808976
27.336562    -13.860588    2.506400
9.317854    -6.130322    3.409152
17.281923    -9.581251    5.594923
9.200880    -6.048993    2.905173
9.400675    -5.686610    2.779685
9.509883    -5.281698    2.640345
8.950225    -5.880401    2.401038
9.094029    -5.503934    2.272061
9.522228    -5.293122    2.218094
17.320005    -9.633610    3.283131
14.735447    -9.680254    2.604415
16.007240    -9.698291    2.580081
17.308069    -9.638840    2.538553
15.554365    -10.218230    2.058563
16.894527    -10.243128    1.988400
17.332950    -9.661022    1.810794
27.319647    -13.957540    2.508763
9.261528    -6.134061    3.395414
17.214642    -9.613116    5.582664
9.266941    -6.133226    2.931959
9.396432    -5.723493    2.783609
8.961441    -5.927211    2.408914
9.168956    -5.587787    2.295053
9.515350    -5.327577    2.220288
17.281761    -9.681879    3.281496
14.679274    -9.707954    2.599739
15.905529    -9.703502    2.568474
17.267169    -9.685587    2.536901
15.362937    -10.160085    2.037344
16.636279    -10.156485    1.961664
17.331017    -9.729754    1.813702
27.362656    -14.085538    2.516669
9.323826    -6.216558    3.425229
9.288315    -6.188434    2.944715
9.397009    -5.763445    2.789006
9.495922    -5.350445    2.645535
8.944027    -5.955217    2.409133
9.138434    -5.607707    2.291709
9.417021    -5.310537    2.201136
17.588039    -9.099620    3.088610
14.656833    -9.757878    2.601054
15.871464    -9.749662    2.567791
17.235645    -9.737541    2.536646
15.261369    -10.160351    2.027999
16.574527    -10.188719    1.958059
17.327958    -9.798073    1.816519
27.347625    -14.184103    2.519277
9.399996    -6.309089    3.460306
18.418930    -9.541642    5.660042
9.286952    -6.228749    2.950327
9.347939    -5.772891    2.779685
9.431288    -5.352214    2.632090
18.472166    -9.595407    4.840132
9.304239    -6.236342    2.511300
9.169438    -5.665531    2.303832
9.399833    -5.338919    2.200936
18.435222    -9.592156    4.027076
17.366124    -9.869629    3.308953
17.592458    -9.170436    3.094311
14.510956    -9.725142    2.580449
15.822942    -9.786844    2.564786
17.150517    -9.758977    2.528512
18.396595    -9.601862    2.460525
15.199576    -10.186651    2.023931
16.503427    -10.214909    1.953352
17.338489    -9.874352    1.820790
27.321647    -14.277169    2.520907
9.294223    -6.279541    3.428445
17.987603    -9.388307    5.536322
9.236546    -6.236111    2.940378
9.369701    -5.826115    2.791458
17.344738    -9.913535    4.849046
18.011154    -9.426213    4.726892
9.071519    -6.120775    2.453544
9.186058    -5.714815    2.312402
9.375753    -5.363353    2.199141
18.377013    -9.633628    4.020798
17.278396    -9.890026    3.298003
17.514380    -9.198179    3.085527
14.408885    -9.720928    2.567589
15.556551    -9.688187    2.526412
16.938913    -9.707486    2.501694
18.387264    -9.668887    2.463233
16.434012    -10.241811    1.948846
17.327982    -9.938895    1.822880
18.447956    -9.712312    1.704893
9.276495    -6.309101    3.429029
17.827218    -9.374301    5.495784
9.114208    -6.194308    2.907469
9.366574    -5.864093    2.795873
9.463963    -5.447798    2.650488
17.774508    -9.371942    4.672309
9.051890    -6.148029    2.453325
9.165166    -5.740894    2.311566
17.293777    -9.963361    4.063513
17.892486    -9.449719    3.921111
17.356520    -10.005562    3.318758
17.465117    -9.240780    3.081829
14.283243    -9.700062    2.550491
15.515844    -9.729027    2.524637
16.836029    -9.717262    2.490891
17.989837    -9.530469    2.413898
16.236482    -10.188001    1.929119
17.357771    -10.026879    1.829241
18.123107    -9.612416    1.677589
9.252360    -6.334290    3.427275
17.862313    -9.462822    5.515527
8.740037    -5.979291    2.793946
9.330496    -5.881429    2.790477
17.296194    -10.027084    4.852584
17.717285    -9.411352    4.664836
9.026542    -6.171365    2.451575
9.138412    -5.763247    2.309267
17.275841    -10.023748    4.066506
17.688338    -9.411418    3.882681
17.271138    -10.027063    3.308299
17.464587    -9.309191    3.086760
14.212582    -9.715922    2.543184
15.454092    -9.756487    2.519448
16.740107    -9.730487    2.481104
17.762520    -9.479945    2.387288
16.190008    -10.228201    1.927317
17.357917    -10.098113    1.832513
17.772677    -9.496529    1.647840
9.221073    -6.354506    3.422891
17.516585    -9.348602    5.417604
8.697761    -5.989625    2.786292
9.265752    -5.880417    2.776496
17.276260    -10.086471    4.855651
17.607602    -9.422464    4.643546
8.995509    -6.190732    2.448293
17.590015    -11.168926    4.453615
17.291540    -10.103892    4.077478
17.615252    -9.441987    3.872979
17.334830    -10.135276    3.326439
17.430721    -9.359923    3.085836
15.250190    -9.693322    2.491042
16.503021    -9.660535    2.450346
17.679124    -9.505240    2.379987
14.828603    -10.203937    1.991058
16.182059    -10.292775    1.930121
17.339742    -10.158870    1.833876
17.717131    -9.536838    1.645395
9.199176    -6.381131    3.422014
17.474227    -9.394990    5.413392
8.624512    -5.978273    2.768690
9.183947    -5.868101    2.757365
9.948722    -5.849404    2.801210
17.446577    -9.405261    4.608668
8.981286    -6.221634    2.449606
17.306066    -10.183731    4.088251
17.475628    -9.436279    3.848628
17.413221    -9.419467    3.087839
13.977853    -9.681838    2.511765
16.475868    -9.712632    2.450727
17.453411    -9.453024    2.353495
14.696728    -10.179770    1.977535
17.298201    -10.205947    1.832786
17.556367    -9.519885    1.633170
9.108201    -6.359503    3.395414
14.839662    -9.546073    5.185151
9.233898    -5.457955    3.037065
17.452106    -9.452230    5.415498
8.599787    -6.000278    2.766649
9.499370    -6.110764    2.857682
9.999298    -5.920498    2.820551
17.415073    -9.457347    4.607989
8.930941    -6.227393    2.441074
14.823946    -9.540719    3.768026
9.458452    -5.604950    2.238443
17.448321    -9.490788    3.849008
17.300950    -9.427460    3.073045
13.933477    -9.714492    2.509135
15.113812    -9.737353    2.478479
16.429788    -9.753513    2.448313
17.409507    -9.498440    2.351493
17.260816    -10.255409    1.832149
17.423863    -9.517325    1.623552
9.180192    -6.451752    3.429614
9.242449    -5.985660    3.235821
9.191479    -5.471003    3.028620
17.379835    -9.482164    5.402073
8.654926    -6.078314    2.790374
14.936527    -9.673300    4.502241
10.127991    -6.038737    2.862065
17.363758    -9.498578    4.602100
8.902209    -6.248036    2.438449
14.783937    -9.579240    3.765308
9.479077    -5.656538    2.247421
17.407930    -9.538141    3.846535
17.323915    -9.509020    3.082291
13.837207    -9.710595    2.497152
14.915982    -9.674782    2.450893
16.254204    -9.716842    2.426579
17.384637    -9.554198    2.352082
15.702732    -10.192093    1.884058
17.336950    -9.539025    1.618173
9.243330    -6.026564    3.242587
17.413227    -9.569824    5.421553
8.606234    -6.083630    2.780680
10.101918    -6.065279    2.859942
17.382308    -9.578127    4.614783
8.957913    -6.328241    2.459013
9.289735    -6.059824    2.370719
9.450759    -5.679031    2.244828
17.371708    -9.587708    3.845013
17.340488    -9.587463    3.090459
13.794422    -9.743869    2.494814
16.175879    -9.737505    2.419334
17.365668    -9.613260    2.353495
15.612252    -10.201578    1.876949
17.367753    -9.625506    1.623797
9.256079    -6.075426    3.253583
9.188215    -5.545694    3.038700
17.326390    -9.591430    5.403653
9.692406    -5.859934    2.749082
17.348583    -9.629048    4.613651
8.898695    -6.327422    2.448075
9.293171    -6.102789    2.376362
9.385505    -5.679084    2.233456
17.321618    -9.629510    3.840447
17.329120    -9.650712    3.093695
16.072132    -9.742354    2.408276
17.296197    -9.644245    2.348078
15.600000    -10.262004    1.879252
17.369471    -9.696233    1.626731
9.283823    -6.134472    3.269935
9.148958    -5.560364    3.031344
8.987748    -6.436382    2.916653
9.121972    -6.027526    2.766195
10.052891    -6.120074    2.856640
8.802271    -6.299607    2.426854
9.329060    -6.167405    2.390367
9.369712    -5.708871    2.233855
17.226183    -9.662745    3.080596
15.916018    -9.714619    2.389339
17.248344    -9.687053    2.345606
17.015539    -10.394292    1.819518
17.332691    -9.745568    1.626079
9.348838    -6.218720    3.299539
9.143346    -5.595438    3.035158
9.041284    -6.014140    2.747309
9.961987    -6.106702    2.836119
17.267955    -9.723367    4.607989
8.683142    -6.254722    2.399288
9.189608    -6.115811    2.359432
9.346306    -5.734003    2.232458
17.021826    -9.616887    3.049312
15.735720    -9.670958    2.366715
17.202121    -9.730634    2.343369
17.338268    -9.818835    1.629421
9.369576    -6.274064    3.313636
9.092551    -5.602768    3.023988
7.774104    -5.639742    2.533990
9.042123    -6.054795    2.753196
9.880357    -6.098445    2.818193
17.296503    -9.809454    4.623616
9.201674    -6.164658    2.367374
9.328671    -5.762650    2.232458
17.317621    -9.837015    3.859472
16.986230    -9.665643    3.048233
14.429321    -9.676773    2.395039
15.675611    -9.700398    2.362139
17.116966    -9.751903    2.335833
16.493407    -10.214830    1.770354
17.329706    -9.884326    1.631458
9.319256    -6.281866    3.302640
9.089218    -5.639261    3.028620
7.853598    -5.734268    2.565624
8.757422    -5.903148    2.672010
9.727065    -6.045118    2.779745
17.268017    -9.863439    4.624069
9.181096    -6.191766    2.366957
9.124562    -5.675314    2.187769
17.256681    -9.872549    3.852623
16.893917    -9.681846    3.036984
14.391355    -9.715453    2.393673
15.592741    -9.715399    2.354132
17.028396    -9.770764    2.327826
16.452694    -10.259585    1.769354
17.335598    -9.958298    1.634881
9.201494    -6.243627    3.267680
9.064530    -5.662532    3.026168
7.849214    -5.768069    2.569961
8.525080    -5.784650    2.606522
9.641745    -6.033177    2.760640
15.393950    -9.645998    3.009387
16.827337    -9.712392    3.030357
14.325429    -9.735060    2.387664
15.500684    -9.724185    2.344727
16.873669    -9.750916    2.310753
17.306691    -10.012434    1.635044
9.142682    -6.244770    3.253583
9.027568    -5.678020    3.019629
7.832258    -5.792698    2.570216
9.594413    -6.044599    2.752385
15.305878    -9.656333    2.997947
16.669327    -9.689491    3.007241
14.252161    -9.749321    2.380426
15.399495    -9.726671    2.333923
16.719224    -9.730210    2.293680
17.325838    -10.094584    1.639772
9.129806    -6.277139    3.255838
8.825579    -5.588837    2.957788
9.096021    -5.293632    2.871612
7.822982    -5.823050    2.573022
9.369027    -5.942834    2.692945
15.252030    -9.687905    2.993207
16.562779    -9.695662    2.993371
14.076950    -9.692997    2.356118
15.319362    -9.741935    2.326297
16.575346    -9.714675    2.278020
17.308541    -10.155762    1.641076
9.085258    -6.287648    3.246816
9.001483    -5.738995    3.022626
9.167130    -5.372733    2.899251
7.800437    -5.843545    2.571491
8.296900    -5.742047    2.552807
9.382692    -5.991948    2.702144
15.232210    -9.741030    2.995168
16.353361    -9.640556    2.960855
14.029235    -9.723724    2.353114
15.188325    -9.724174    2.310918
16.410345    -9.685731    2.259416
9.036797    -6.295200    3.236385
14.857536    -9.536823    4.998843
9.155589    -5.403774    2.900831
7.780156    -5.865703    2.570726
8.461406    -5.894372    2.608975
9.696951    -6.234605    2.798144
9.908195    -5.862908    2.677009
15.131746    -9.742321    2.981277
16.274428    -9.661428    2.951917
16.262748    -9.666013    2.243167
9.084214    -6.369715    3.260349
9.153065    -5.440217    2.905306
7.770597    -5.895973    2.573532
8.475033    -5.942566    2.618786
9.683488    -6.268022    2.799795
9.040757    -5.856691    2.193156
14.868329    -9.637377    2.935190
16.246407    -9.712325    2.952225
16.275621    -9.741361    2.249055
9.052087    -6.388703    3.255838
7.760156    -5.925654    2.576083
9.678868    -6.307251    2.804040
9.755107    -5.853432    2.645302
14.842824    -9.685643    2.936007
16.188599    -9.745307    2.947139
13.669763    -9.662029    2.307639
14.766857    -9.647098    2.260206
16.144447    -9.730248    2.235043
9.080939    -6.450894    3.273319
9.131907    -5.503747    2.909254
7.748840    -5.954736    2.578379
8.350684    -5.932137    2.591560
9.665972    -6.341180    2.805927
9.746273    -5.888873    2.647793
16.064837    -9.738075    2.930034
13.638441    -9.702773    2.307365
14.711499    -9.675461    2.256266
16.095842    -9.768399    2.232452
8.976036    -6.417898    3.242587
8.961392    -5.908704    3.039245
8.953330    -5.433635    2.857661
7.746597    -5.990903    2.583736
8.281974    -5.921642    2.575863
9.505376    -6.277620    2.764886
9.206429    -5.601318    2.505789
15.845128    -9.671492    2.895359
14.661071    -9.706860    2.253088
15.959878    -9.753007    2.217734
8.945627    -5.937766    3.040062
8.898751    -5.437938    2.845552
7.782358    -6.056805    2.601849
9.149422    -6.082934    2.666763
8.979903    -5.501315    2.448716
8.646386    -6.225352    2.277286
17.547372    -10.766397    3.989408
15.785919    -9.701951    2.889966
14.589128    -9.723739    2.246606
15.764113    -9.699925    2.194656
8.912168    -5.955026    3.034886
7.788859    -6.100327    2.610268
8.649388    -5.788833    2.526184
8.928995    -5.507874    2.439430
15.719951    -9.727979    2.883339
14.490038    -9.722030    2.235930
15.657461    -9.700650    2.183941
8.832381    -5.940990    3.013908
7.780739    -6.132574    2.613839
7.825245    -5.704646    2.450038
8.499414    -5.726292    2.487501
9.017136    -5.600507    2.468193
15.642233    -9.746378    2.874555
15.529890    -9.687672    2.170283
8.906533    -6.030636    3.045511
7.760373    -6.155214    2.613329
7.826466    -5.742390    2.455924
8.942929    -5.592510    2.452566
15.505961    -9.727637    2.854983
8.812459    -6.006452    3.019629
7.753544    -6.188645    2.617411
7.798673    -5.758888    2.452735
9.127669    -5.747069    2.508054
15.336706    -9.698390    2.151561
8.927280    -6.124909    3.065398
8.760475    -5.539768    2.828178
7.740551    -6.217247    2.619452
7.802755    -5.798978    2.459603
8.715124    -5.524727    2.399343
15.256721    -9.702240    2.820001
8.758019    -6.048383    3.013636
8.872018    -5.648480    2.869769
7.774835    -5.815341    2.456415
8.973183    -5.726984    2.475214
15.118708    -9.679742    2.799967
15.004361    -9.617612    2.113176
8.887135    -5.696497    2.880298
7.761605    -5.842665    2.457886
9.010472    -5.789764    2.490388
14.975165    -9.652742    2.778855
14.909701    -9.621600    2.103992
8.906094    -5.747275    2.892144
7.765280    -5.882841    2.464754
8.959137    -5.795690    2.481103
14.856796    -9.652149    2.100695
8.822890    -5.731999    2.870822
7.753362    -5.911339    2.466716
8.285548    -5.844751    2.461083
8.937233    -5.820491    2.479970
14.776689    -9.653660    2.752965
8.798805    -5.754816    2.868716
7.722115    -5.925066    2.462546
8.313536    -5.902773    2.474764
9.662204    -6.334939    2.686521
14.761862    -9.708721    2.755739
14.669564    -9.659026    2.082563
8.763381    -5.770111    2.862925
7.713108    -5.955839    2.465490
8.645641    -6.178558    2.579255
14.659508    -9.705964    2.742177
14.514049    -9.620591    2.064665
8.735988    -5.790574    2.859766
7.722358    -6.000889    2.474320
8.809669    -6.336701    2.633977
9.609361    -6.384943    2.682671
9.508345    -6.844541    2.385279
14.554022    -9.700478    2.727999
8.735034    -5.828593    2.865294
7.728349    -6.043664    2.482168
9.805890    -6.558981    2.743142
8.719513    -5.856978    2.866084
7.753195    -6.101519    2.496149
7.857981    -5.725649    2.359894
9.037573    -6.085283    2.533420
8.479330    -5.733475    2.792905
7.737479    -6.127684    2.497130
7.830974    -5.742834    2.357064
8.527040    -5.779625    2.395266
7.718644    -6.151394    2.497130
7.826611    -5.776642    2.361074
8.449562    -5.789212    2.794748
7.695197    -6.171406    2.495658
7.819773    -5.808740    2.364376
8.432555    -5.815655    2.795011
7.677736    -6.196203    2.496149
7.806585    -5.836194    2.365791
10.034391    -8.734993    2.982757
10.502236    -9.210710    4.269698
8.426561    -5.849751    2.798959
7.654175    -6.216062    2.494677
7.791749    -5.862454    2.366735
10.042779    -8.796598    2.993258
10.453134    -9.224537    4.261221
10.240535    -9.030886    3.602384
7.762880    -5.878118    2.363432
8.348030    -5.847159    2.369901
10.054542    -8.861562    3.004853
10.373297    -9.210845    4.240176
7.763360    -5.916043    2.369093
8.357914    -5.892386    2.377827
10.045559    -8.908552    3.010322
10.461218    -9.277166    2.594988
10.323595    -9.223512    4.231406
11.140047    -9.218429    4.249112
8.917241    -6.312795    2.981117
7.733607    -5.930962    2.365555
8.263540    -5.863887    2.356085
10.024005    -8.944527    3.012072
10.396760    -9.277140    2.586047
10.283870    -9.244911    4.226729
10.230350    -9.190666    3.628405
7.735376    -5.970098    2.371688
10.000873    -8.979150    3.013385
10.355080    -9.297170    2.582762
10.223543    -9.247550    4.213576
11.010470    -9.225607    4.221200
10.258772    -9.273232    3.648558
7.719327    -5.995590    2.372395
8.531889    -6.133367    2.443281
10.207876    -9.221723    3.084268
13.451389    -9.699106    2.586529
10.163297    -9.249905    4.200422
10.184494    -9.263024    3.632231
7.712381    -6.028222    2.375934
8.460950    -6.121830    2.428333
10.175925    -9.249715    3.083174
10.217080    -9.287125    2.562507
13.401578    -9.725820    2.582677
10.120060    -9.267480    4.194283
10.121789    -9.262893    3.619986
7.705307    -6.060866    2.379472
10.144620    -9.278257    3.082299
10.182010    -9.312455    2.560865
10.089767    -9.290628    3.618711
7.704963    -6.098953    2.385133
10.107491    -9.301408    3.079673
10.146157    -9.336990    2.559040
7.707499    -6.139516    2.391737
7.702275    -6.174073    2.395983
9.987442    -8.636559    2.822205
7.691617    -6.204386    2.398577
9.902566    -9.282596    3.043138
9.923274    -8.634423    2.811544
9.951475    -9.328443    2.531486
9.782032    -9.237773    4.112438
10.526072    -9.211605    4.110398
9.797085    -9.245844    3.554168
7.671038    -6.226730    2.398105
9.938676    -8.701544    2.823459
10.457439    -9.208348    4.094609
7.705334    -6.293882    2.414852
10.096847    -8.894895    2.876132
10.372408    -9.190124    4.072335
10.231142    -9.064959    3.458357
10.069510    -8.925829    2.876132
10.177232    -9.073081    3.449527
10.040619    -8.955378    2.875714
9.612960    -9.303911    4.089054
10.303682    -9.242703    4.067543
11.086047    -9.212652    4.081295
9.623116    -9.307563    3.532229
10.143575    -9.099083    3.447565
10.927602    -9.094856    3.450800
9.634132    -9.312686    3.004197
9.943956    -8.924091    2.855857
9.701881    -9.378175    2.504298
9.506950    -9.257967    4.056024
10.233968    -9.236986    4.051190
9.556403    -9.299953    3.518198
10.297687    -9.294498    3.509619
9.598521    -9.335396    3.002009
10.038464    -9.064661    2.890973
9.603991    -9.340716    2.486415
9.429320    -9.238902    4.034977
10.182144    -9.247055    4.041886
9.491210    -9.293374    3.504677
10.245441    -9.304539    3.501525
9.544031    -9.339549    2.993914
10.200237    -9.267710    2.945736
9.499395    -9.295869    2.466708
9.396845    -9.263758    4.033224
10.148768    -9.273719    4.039912
9.405484    -9.266127    3.483503
10.129535    -9.256145    3.471602
9.476396    -9.330448    2.981663
10.152268    -9.281145    2.940093
9.445609    -9.300136    2.460138
9.353443    -9.277727    4.026793
10.080010    -9.267798    4.023842
9.363964    -9.282006    3.478656
10.101803    -9.287834    3.471847
9.402667    -9.314840    2.967443
10.129504    -9.317545    2.941765
10.040262    -9.288254    4.019331
9.312166    -9.287474    3.469983
10.054047    -9.301008    3.465225
9.303553    -9.273380    2.945128
9.992757    -9.301363    4.011718
9.232440    -9.264633    3.450849
9.970115    -9.280288    3.446093
9.253701    -9.280459    2.938346
9.971951    -9.286221    2.912502
9.147236    -9.241756    3.974470
9.905350    -9.276887    3.988035
9.171993    -9.260626    3.438859
9.899849    -9.271734    3.431622
9.144823    -9.227714    2.912749
9.931282    -9.305403    2.908948
9.965713    -8.669631    2.689324
9.848215    -9.280255    3.976476
9.861479    -9.292755    3.428188
9.855013    -9.290884    2.894944
9.958239    -8.716944    2.694511
9.051582    -9.258048    3.957517
9.810646    -9.301843    3.972811
10.496459    -9.224306    3.956521
9.074428    -9.275260    3.423553
9.801968    -9.293616    3.417396
10.189427    -8.968048    3.294653
9.060044    -9.255064    2.903779
9.924096    -8.740978    2.692516
8.978483    -9.239822    3.937932
9.739021    -9.290838    3.955331
10.441440    -9.232883    3.946441
8.978522    -9.233735    3.398042
9.773410    -9.323644    3.417396
10.166230    -9.003132    3.296068
8.997585    -9.247846    2.892841
9.759619    -9.314718    2.883657
9.879632    -8.755786    2.687728
9.688322    -9.299413    3.946309
10.334712    -9.195160    3.916746
11.175725    -9.217348    3.952711
8.909836    -9.219519    3.382735
9.716084    -9.326061    3.407340
10.156699    -9.050441    3.301965
8.954248    -9.259975    2.888028
9.914887    -8.841489    2.704686
8.891157    -9.263003    3.924486
10.301434    -9.222330    3.914839
11.111760    -9.222019    3.940076
8.883518    -9.248903    3.383501
10.978391    -9.132059    3.320443
8.939995    -9.302177    2.892622
10.050359    -9.017800    2.749175
8.850815    -9.277781    3.919225
9.569152    -9.298509    3.920934
10.268089    -9.249384    3.912932
11.063422    -9.239369    3.932968
8.837074    -9.257230    3.376613
9.570378    -9.299700    3.376190
10.283527    -9.277281    3.361641
8.865584    -9.281579    2.877746
9.784963    -9.512533    2.916891
10.040829    -9.065008    2.754163
11.053411    -9.264788    2.794868
8.758484    -9.237576    3.890871
9.432873    -9.222518    3.876669
10.218276    -9.261458    3.904759
11.001049    -9.244717    3.920860
8.795987    -9.270971    3.371766
9.504370    -9.292420    3.362946
10.231271    -9.287233    3.353857
8.810194    -9.280429    2.868995
9.588651    -9.379079    2.866935
10.206630    -9.271689    2.807431
11.014429    -9.289795    2.792205
8.688783    -9.220555    3.872456
9.457200    -9.303222    3.898379
10.177727    -9.281741    3.900128
8.683921    -9.209274    3.339622
9.430895    -9.277344    3.347003
10.166136    -9.285154    3.341827
10.958522    -9.287504    3.340146
8.744180    -9.267669    2.856743
9.513134    -9.362493    2.852931
10.157884    -9.284449    2.801845
8.628422    -9.212966    3.858133
9.357696    -9.262000    3.869057
10.107376    -9.274541    3.884054
8.641080    -9.220352    3.334010
9.379649    -9.283729    3.338909
10.106834    -9.288025    3.331685
10.904038    -9.298959    3.332220
8.717709    -9.296587    2.857400
9.363456    -9.271909    2.816561
10.080307    -9.270464    2.788278
10.896749    -9.305562    2.776795
8.580570    -9.218394    3.849364
9.309521    -9.271032    3.860881
10.073927    -9.300937    3.882147
10.793848    -9.241423    3.877163
8.602207    -9.235497    3.329928
9.309908    -9.271417    3.324192
10.068302    -9.309752    3.328383
10.774930    -9.246104    3.301418
8.616632    -9.245482    2.833553
9.312798    -9.278505    2.809872
10.023768    -9.275391    2.780498
10.836131    -9.311436    2.768615
8.556143    -9.248888    3.851118
9.251214    -9.269670    3.848475
9.981195    -9.272208    3.857356
10.661657    -9.185080    3.839784
8.560039    -9.246945    3.324571
9.252657    -9.271116    3.313891
9.970679    -9.276389    3.305503
10.742090    -9.275299    3.300059
8.560377    -9.241808    2.824365
9.283598    -9.306340    2.809663
9.990961    -9.302093    2.779301
10.042603    -8.683264    2.572664
8.459118    -9.200471    3.820133
9.921773    -9.273877    3.845369
10.641446    -9.224697    3.842679
8.516572    -9.256797    3.318703
9.898187    -9.265760    3.290879
10.261393    -8.915338    3.160773
8.525375    -9.260848    2.822177
9.906596    -9.280447    2.763739
10.038135    -8.733364    2.578371
8.428271    -9.223555    3.818964
9.846314    -9.260109    3.827116
10.618911    -9.262375    3.844785
8.473125    -9.266470    3.312836
9.853443    -9.280759    3.285454
10.226660    -8.940367    3.158508
8.487701    -9.276881    2.819114
9.125422    -9.260735    2.778937
10.045274    -8.793866    2.587122
8.371002    -9.217512    3.805810
9.805278    -9.278369    3.822212
10.496910    -9.212818    3.810828
8.404989    -9.248771    3.297274
10.196989    -8.969770    3.157829
8.418499    -9.258117    2.805550
9.099020    -9.290783    2.779564
10.038138    -8.842164    2.592259
8.340121    -9.240311    3.804641
9.757254    -9.289830    3.814584
10.389053    -9.174732    3.781872
8.364908    -9.261598    3.292682
8.998861    -9.240886    3.263365
9.775916    -9.321596    3.278614
8.378280    -9.270870    2.801612
9.029549    -9.276609    2.767023
10.019780    -8.880732    2.594542
7.970593    -8.846097    -0.428297
8.274057    -9.223854    3.787395
8.921107    -9.217450    3.769532
9.718285    -9.309737    3.810498
10.360856    -9.206563    3.781872
8.282846    -9.227495    3.271508
8.934735    -9.231530    3.250365
10.159944    -9.048364    3.163491
8.310024    -9.252248    2.788267
8.962969    -9.264909    2.755318
10.010071    -8.927113    2.599108
7.921416    -8.845941    -0.427111
8.249538    -9.253478    3.789149
8.835585    -9.185311    3.745285
10.323931    -9.230589    3.778714
8.237763    -9.234103    3.264876
8.886880    -9.238636    3.243252
10.149546    -9.095091    3.168927
8.260156    -9.253677    2.781048
8.901291    -9.257821    2.745076
9.987020    -8.961716    2.600249
7.890918    -8.866469    -0.426931
8.162763    -9.212891    3.762257
8.829242    -9.235260    3.754590
9.589145    -9.299528    3.782165
10.299867    -9.266091    3.780293
8.183094    -9.229669    3.254416
8.848446    -9.255347    3.239573
9.587932    -9.312325    3.244177
10.307504    -9.293814    3.227132
8.203235    -9.246858    2.771422
8.838390    -9.249029    2.734416
9.710205    -9.438002    2.756956
9.957293    -8.990340    2.599679
7.875596    -8.904111    -0.427578
8.112340    -9.212770    3.752026
8.786328    -9.247003    3.748387
9.524070    -9.293289    3.767726
10.253510    -9.281461    3.773712
8.131088    -9.227890    3.244977
8.805986    -9.267691    3.234422
9.508580    -9.292116    3.226958
10.221232    -9.273036    3.209014
8.165793    -9.261735    2.768359
8.792464    -9.257666    2.728981
9.567710    -9.356757    2.724636
10.195618    -9.262458    2.669308
7.845603    -8.925228    -0.427434
8.080889    -9.234017    3.750565
8.701925    -9.214623    3.724422
9.441960    -9.269887    3.746476
10.189325    -9.280394    3.760550
8.091273    -9.239698    3.240385
8.716940    -9.230524    3.212102
9.428751    -9.270825    3.209504
10.150292    -9.265608    3.195651
8.102615    -9.247113    2.756545
8.752609    -9.272508    2.725428
9.450254    -9.298784    2.699299
10.136719    -9.265874    2.661318
7.820814    -8.952267    -0.427578
7.999177    -9.197430    3.725719
8.677553    -9.245474    3.726114
9.390887    -9.276497    3.737486
10.096793    -9.252949    3.736860
8.047018    -9.246244    3.234007
8.668677    -9.236018    3.204744
9.387138    -9.286723    3.205022
10.085950    -9.263761    3.184327
8.079334    -9.277815    2.758295
8.690666    -9.263657    2.714977
9.393827    -9.300157    2.691319
10.139315    -9.325507    2.669498
7.791346    -8.973955    -0.427470
7.953411    -9.201669    3.717534
8.599410    -9.218733    3.704686
9.334404    -9.277455    3.726316
10.044244    -9.261646    3.727910
7.994577    -9.243098    3.224313
8.633687    -9.255480    3.202291
9.335874    -9.292855    3.197238
10.041030    -9.279456    3.179118
8.001024    -9.245007    2.741231
8.646200    -9.273111    2.709960
9.349978    -9.313718    2.686930
10.067425    -9.316563    2.658083
7.783363    -9.020514    -0.428549
7.926390    -9.227478    3.718119
8.561303    -9.234519    3.700457
9.284125    -9.284277    3.717599
9.988201    -9.266828    3.717643
7.947273    -9.245584    3.216660
8.553183    -9.225761    3.182915
9.270928    -9.285006    3.184737
10.004667    -9.302922    3.176627
7.936355    -9.227342    2.728761
8.580487    -9.259425    2.698255
9.306134    -9.327099    2.682541
9.999278    -9.310610    2.647620
7.736787    -9.022351    -0.427506
7.876932    -9.227023    3.708181
8.506926    -9.232518    3.689180
9.212867    -9.269722    3.700436
9.929399    -9.269121    3.706325
7.916359    -9.266982    3.215640
8.524838    -9.251958    3.182915
9.197220    -9.267880    3.169169
9.947629    -9.306954    3.167568
7.931467    -9.279092    2.736855
8.544751    -9.277794    2.695956
9.220206    -9.297855    2.665982
9.918366    -9.292245    2.633732
7.727868    -9.068103    -0.428549
7.830645    -9.229997    3.699704
8.472729    -9.252205    3.686642
9.147871    -9.260979    3.685724
9.842550    -9.244720    3.684476
7.875375    -9.276483    3.210537
8.468914    -9.248039    3.172613
9.108693    -9.235168    3.148413
9.895625    -9.315398    3.160094
7.877693    -9.273635    2.728105
8.474650    -9.258520    2.682787
9.166875    -9.300974    2.658800
9.853378    -9.288287    2.624030
7.683865    -9.072703    -0.427650
7.767770    -9.213034    3.683335
8.415244    -9.246226    3.673955
9.098520    -9.267716    3.677279
9.800819    -9.262283    3.679475
7.796997    -9.241479    3.190129
8.418969    -9.250318    3.164519
9.056507    -9.238780    3.140157
9.825277    -9.306195    3.146731
7.822138    -9.265698    2.718697
8.411328    -9.246137    2.671709
9.103326    -9.293354    2.648625
9.812726    -9.306987    2.620796
7.655994    -9.096235    -0.427650
7.727798    -9.222894    3.677781
8.374608    -9.258480    3.668598
9.070717    -9.296275    3.677551
9.759074    -9.279677    3.674473
7.735062    -9.225346    3.176353
8.370389    -9.253816    3.156916
9.012523    -9.250513    3.134732
9.770590    -9.311432    3.138352
7.786776    -9.281430    2.716291
8.377019    -9.265371    2.669828
9.042645    -9.288239    2.639248
9.777024    -9.330271    2.618893
7.630616    -9.122746    -0.427794
7.670094    -9.211284    3.663750
8.294851    -9.227050    3.646043
8.957754    -9.237029    3.643225
9.704069    -9.284230    3.664470
7.691867    -9.231205    3.170230
8.301775    -9.234753    3.141709
8.961792    -9.255081    3.126948
9.718074    -9.318443    3.130651
7.726397    -9.267053    2.705133
8.332214    -9.272843    2.664603
8.983444    -9.284248    2.630271
9.723568    -9.336424    2.612235
7.606424    -9.150725    -0.428009
7.632043    -9.222984    3.659073
8.235181    -9.217396    3.632228
8.919357    -9.254075    3.639138
9.659554    -9.298570    3.658416
7.635759    -9.221248    3.158750
8.255319    -9.239937    3.134841
8.908423    -9.256625    3.118221
9.658598    -9.318458    3.120686
7.671159    -9.258405    2.695726
8.290699    -9.283774    2.660422
8.906692    -9.261618    2.616106
9.708294    -9.379172    2.615849
7.580224    -9.176330    -0.428117
7.574555    -9.210901    3.645043
8.185205    -9.218226    3.622642
8.838342    -9.226506    3.617616
9.606727    -9.304670    3.649203
7.601289    -9.237164    3.156199
8.187668    -9.221000    3.119880
8.838336    -9.240371    3.103597
9.613190    -9.331764    3.115250
7.618529    -9.252518    2.687194
8.239457    -9.283567    2.653107
8.858602    -9.268358    2.610320
9.698480    -9.427388    2.620986
7.550133    -9.197225    -0.428009
7.509951    -9.189665    3.627504
8.142285    -9.226749    3.616157
8.774168    -9.215947    3.602905
9.514571    -9.272155    3.624985
7.555775    -9.239483    3.149056
8.145228    -9.230084    3.114483
8.801241    -9.258287    3.100531
9.557340    -9.334671    3.106418
7.561064    -9.240354    2.676912
8.174064    -9.266998    2.641192
8.811228    -9.275600    2.604734
9.593009    -9.382276    2.600249
7.561680    -9.269130    -0.430274
7.467856    -9.195587    3.620781
8.102551    -9.238702    3.611082
8.722706    -9.218362    3.593370
9.482636    -9.297925    3.623669
7.505440    -9.235607    3.139872
8.088747    -9.222960    3.103691
8.728748    -9.238625    3.084963
9.391798    -9.229456    3.061801
8.147529    -9.294239    2.641819
8.769277    -9.288338    2.600744
9.454319    -9.303554    2.570381
7.531318    -9.289956    -0.430166
7.425195    -9.200595    3.613766
8.032563    -9.215781    3.592474
8.686473    -9.236668    3.590101
9.370966    -9.244991    3.591818
7.463706    -9.242040    3.134260
8.051494    -9.237502    3.100258
8.689720    -9.254026    3.081189
9.415385    -9.309588    3.078787
8.080434    -9.274951    2.629278
8.742750    -9.317342    2.601343
9.413871    -9.320773    2.567147
7.564851    -9.390062    -0.433725
7.378984    -9.200950    3.604997
7.976612    -9.208473    3.580069
8.642326    -9.246404    3.583562
9.328180    -9.259425    3.586290
7.429870    -9.258108    3.131964
8.005344    -9.241642    3.093390
8.644712    -9.262882    3.075292
9.352253    -9.304083    3.067463
8.634595    -9.258842    2.577602
9.381754    -9.346146    2.566196
7.529761    -9.405426    -0.433365
7.318536    -9.183160    3.589212
7.954583    -9.240172    3.582888
8.531407    -9.184051    3.549236
9.279252    -9.267547    3.578393
7.379125    -9.252889    3.122525
7.968731    -9.256607    3.090201
8.607001    -9.279385    3.071990
9.256202    -9.265203    3.045268
8.600154    -9.278820    2.575806
9.262897    -9.284535    2.541464
7.537578    -9.474624    -0.435486
7.306952    -9.226561    3.597397
7.901872    -9.236101    3.571893
8.498622    -9.205234    3.547329
9.232402    -9.277509    3.571286
7.340493    -9.262601    3.118188
7.918237    -9.255229    3.081617
8.533702    -9.257161    3.055951
9.189302    -9.254851    3.032585
8.551728    -9.283540    2.569821
9.213631    -9.291996    2.535757
7.517771    -9.509464    -0.436025
7.239577    -9.199335    3.578105
7.844911    -9.226677    3.558923
8.451476    -9.210704    3.539429
9.145552    -9.246801    3.548648
7.250425    -9.206836    3.091912
7.843963    -9.225562    3.063712
8.475064    -9.250338    3.045101
9.143076    -9.264974    3.026696
9.166474    -9.301340    2.530620
7.499057    -9.545842    -0.436636
7.183043    -9.185342    3.564074
7.793655    -9.223587    3.548492
8.409563    -9.221660    3.533708
9.106320    -9.263808    3.544436
7.218569    -9.224467    3.090381
7.808740    -9.241438    3.061014
8.438139    -9.266955    3.042035
9.088692    -9.266558    3.018090
9.124843    -9.316092    2.527005
7.479574    -9.581408    -0.437212
7.145440    -9.195255    3.559397
7.743727    -9.221737    3.538624
8.356678    -9.220325    3.523355
9.034034    -9.246848    3.527326
7.177771    -9.230541    3.085024
7.762895    -9.244564    3.054146
8.384891    -9.265418    3.033072
9.039143    -9.272776    3.011069
9.025684    -9.271587    2.507411
7.444018    -9.596414    -0.436852
7.100830    -9.195939    3.551213
7.711710    -9.241032    3.536932
8.304524    -9.219468    3.513275
8.965971    -9.233685    3.511795
7.154147    -9.258639    3.087065
7.717104    -9.247495    3.047278
8.302488    -9.231129    3.013494
8.974732    -9.263389    2.999065
7.414542    -9.619207    -0.436852
7.081898    -9.229821    3.555890
7.650250    -9.224768    3.521708
8.251171    -9.216944    3.502650
8.912813    -9.235464    3.502055
7.083900    -9.226093    3.068952
7.663323    -9.240532    3.037222
8.254051    -9.234096    3.006182
8.932082    -9.276144    2.994309
7.384995    -9.641909    -0.436852
7.022238    -9.210437    3.540105
7.603607    -9.225984    3.513249
8.191517    -9.206991    3.489301
8.835687    -9.211939    3.482839
7.041486    -9.229333    3.062830
7.615208    -9.240059    3.029373
8.222456    -9.255744    3.005003
8.863175    -9.261283    2.980721
7.349933    -9.657363    -0.436529
6.985863    -9.221266    3.536013
7.560676    -9.231453    3.506483
8.137738    -9.203247    3.478404
8.800727    -9.232021    3.480207
7.006128    -9.241646    3.059768
7.559796    -9.230379    3.018581
8.165078    -9.248144    2.994389
8.803170    -9.255261    2.970076
7.320270    -9.679867    -0.436529
6.931658    -9.208273    3.522859
7.508699    -9.225585    3.495487
8.109464    -9.228169    3.478404
8.768382    -9.254775    3.478628
6.966107    -9.247651    3.054666
7.517367    -9.236235    3.012940
8.118721    -9.252698    2.987784
8.749977    -9.256036    2.961696
7.304946    -9.721454    -0.437391
6.890773    -9.212648    3.516428
7.468896    -9.234404    3.490130
8.057697    -9.226192    3.468324
8.670504    -9.207885    3.450988
6.933067    -9.262787    3.052625
7.472535    -9.238903    3.006318
8.083909    -9.270238    2.985426
8.712868    -9.273609    2.958752
7.263129    -9.727804    -0.436672
6.857343    -9.226836    3.513798
7.421897    -9.234093    3.481390
8.010432    -9.229070    3.460151
8.662649    -9.256278    3.459148
6.849800    -9.210306    3.028390
7.429579    -9.243650    3.000431
8.021699    -9.256074    2.972924
8.609259    -9.219851    2.933159
7.227296    -9.742015    -0.436313
6.810256    -9.222444    3.504152
7.371378    -9.229082    3.470958
7.970139    -9.239759    3.454975
8.586903    -9.231951    3.440196
6.811742    -9.218058    3.024053
7.386664    -9.248220    2.994545
7.985019    -9.271068    2.969858
8.561717    -9.225516    2.926591
7.190259    -9.754489    -0.435882
6.759867    -9.213223    3.492752
7.337661    -9.244890    3.468421
7.915454    -9.233487    3.443533
8.550680    -9.249750    3.437037
6.785146    -9.241251    3.024819
7.324506    -9.228315    2.980810
7.944532    -9.281495    2.965376
8.520826    -9.238136    2.922288
7.154984    -9.769247    -0.435558
6.714668    -9.210736    3.483983
7.289657    -9.242498    3.459117
7.883968    -9.254066    3.442171
8.502681    -9.254628    3.429140
6.738527    -9.237027    3.016655
7.279349    -9.229429    2.973942
7.901537    -9.288800    2.959951
8.484546    -9.255618    2.919571
7.128507    -9.796000    -0.435774
6.677964    -9.219675    3.479598
7.260083    -9.263309    3.458553
7.833779    -9.252509    3.432636
8.433917    -9.236500    3.412819
6.706752    -9.252960    3.015125
7.239637    -9.237222    2.969281
7.823439    -9.254370    2.941317
8.441023    -9.265045    2.914362
7.101933    -9.822683    -0.435989
6.628420    -9.210623    3.468491
7.166193    -9.201518    3.427258
7.761374    -9.224226    3.413293
8.368586    -9.221610    3.397815
6.669857    -9.261723    3.011298
7.180288    -9.219616    2.956527
7.774382    -9.253774    2.933534
8.403406    -9.280789    2.911191
7.067683    -9.838744    -0.435738
6.587894    -9.213802    3.462060
7.142627    -9.229530    3.429513
7.705880    -9.215517    3.401306
8.308594    -9.212138    3.384917
6.625657    -9.260124    3.004155
7.140696    -9.227035    2.951867
7.712946    -9.238046    2.921033
8.314952    -9.239918    2.890354
7.034562    -9.856313    -0.435558
6.544642    -9.212920    3.454168
7.099656    -9.232386    3.422465
7.662813    -9.221354    3.394768
8.255180    -9.209568    3.374650
6.578168    -9.253613    2.995481
7.099944    -9.232760    2.946716
7.652300    -9.222776    2.908767
8.271631    -9.248686    2.885145
6.991572    -9.859915    -0.434767
6.496495    -9.204827    3.443644
7.054405    -9.232016    3.414289
7.626521    -9.235175    3.391226
8.219186    -9.226207    3.371492
6.526320    -9.240580    2.984767
7.053337    -9.230619    2.939113
