25.475061    8.987180    3.990504
24.925128    9.830331    3.693615
23.609337    10.324972    3.301911
22.703988    10.926692    2.987554
21.022195    10.117399    6.365770
25.999233    10.182821    7.064369
24.531331    10.672238    6.493306
22.576791    10.834539    5.822835
27.235309    9.512713    6.468036
23.772364    9.304429    5.456499
22.496033    9.776987    4.994003
22.633043    10.842586    4.863197
23.831117    8.323701    4.684883
25.201334    9.859665    4.749259
23.201644    10.076432    4.190326
23.216519    11.100691    4.013713
37.405303    13.067073    5.852992
24.535359    9.589732    3.631479
23.817441    10.329053    3.326568
22.766975    10.871106    2.991439
28.785894    12.444971    0.566570
22.007288    10.508462    6.654274
26.184894    10.162991    7.106311
24.580017    10.603856    6.497552
22.385673    10.658451    5.765082
23.825413    9.241000    5.462143
22.669003    9.769588    5.025725
22.531425    10.709040    4.834280
23.824020    8.239301    4.678496
23.415482    10.084027    4.223339
23.346878    11.075148    4.030356
26.240262    9.076473    4.101566
24.353124    9.432479    3.600206
23.476335    10.095665    3.274585
22.805605    10.803757    2.992146
28.752259    12.325871    0.565161
22.015011    10.429330    6.646903
25.928212    9.971945    7.028313
24.784873    10.602159    6.543075
22.465824    10.612187    5.777312
23.790669    9.143654    5.447720
22.593445    9.654942    5.002382
22.536646    10.626884    4.828382
23.761747    8.136232    4.661344
23.478970    10.026089    4.229223
23.461207    11.041334    4.044226
26.256753    8.992080    4.099812
24.638133    9.456043    3.638034
23.498986    10.020092    3.273441
22.872796    10.749790    2.996620
28.749452    12.220392    0.564366
25.938356    12.190669    7.820134
24.877939    9.480501    6.735702
24.816390    10.525691    6.542840
23.862475    9.087327    5.457753
22.530028    9.546205    4.981833
22.489112    10.520254    4.811260
23.719553    8.040567    4.648205
33.208317    12.641110    6.236006
23.656794    10.016324    4.255698
23.492285    10.968051    4.043764
26.262668    8.904177    4.096451
24.621657    9.363156    3.631342
23.499468    9.935205    3.269246
22.888567    10.671595    2.994383
24.892459    10.467964    6.554397
23.130234    10.752940    5.931093
23.783194    8.973685    5.433298
22.783255    9.571161    5.031311
22.518609    10.449969    4.810690
23.755296    7.971512    4.650395
23.781107    9.983031    4.272531
26.238280    8.806250    4.088414
24.840304    9.359175    3.659337
23.521605    9.859611    3.268103
22.924805    10.602991    2.994854
25.953127    12.003745    7.802234
27.570674    10.313361    7.447486
24.824896    10.350037    6.528216
23.168422    10.684375    5.932451
23.817941    8.903416    5.434970
22.805275    9.498204    5.029714
24.327000    11.198591    5.189655
23.590224    7.835678    4.613352
23.790674    9.901305    4.268773
24.690709    9.216408    3.633117
23.568232    9.794254    3.270390
23.026726    10.564494    3.003920
22.005426    10.096031    6.606102
26.997671    10.004707    7.284379
24.336537    10.058899    6.391646
28.671428    13.115626    7.331200
24.035891    8.900938    5.478446
22.837026    9.429315    5.030313
24.178168    11.040308    5.150655
23.817291    9.826764    4.268119
24.706790    9.136148    3.631342
23.617427    9.729835    3.273059
23.068970    10.498324    3.005215
25.991169    11.828290    7.791705
24.318723    9.964292    6.378909
23.116463    10.488890    5.902556
24.065964    7.830071    5.674107
24.052068    8.823115    5.475938
22.896680    9.371829    5.037096
23.362353    10.581290    4.969923
23.852805    9.755889    4.269100
24.731912    9.059283    3.630932
23.711446    9.683583    3.281956
23.453158    10.586427    3.051018
55.796903    18.130319    4.327912
23.865689    9.693263    6.252246
24.742871    11.135447    6.309090
24.219648    8.800379    5.507919
22.995242    9.329905    5.052458
23.721573    10.656404    5.039362
26.704069    10.826554    4.773442
26.590140    8.562747    4.126555
24.761452    8.984040    3.631205
23.777820    9.625680    3.287040
23.239903    10.404459    3.019109
55.796247    17.941041    4.323572
26.205901    11.732451    7.834349
23.943093    9.639233    6.264747
24.727999    11.037649    6.296633
24.312783    8.749875    5.522968
22.993755    9.247248    5.045874
23.602603    10.516053    5.007211
24.260072    9.749136    4.331203
25.978859    11.551426    4.434424
26.621941    8.482932    4.127432
24.785169    8.906690    3.630659
23.921387    9.598487    3.302801
23.897048    10.610772    3.100236
55.751239    17.738027    4.315847
22.020974    9.777858    6.574251
28.172139    10.048497    7.567425
24.206322    9.659011    6.325838
24.763526    10.962521    6.297086
23.955395    8.538333    5.435806
23.090286    9.203873    5.060837
23.500956    10.384470    4.978865
23.782868    8.473098    4.430856
25.858965    10.299633    4.610994
27.863871    12.287344    4.749727
25.296754    9.002996    3.701535
24.063166    9.569771    3.318307
23.842243    10.498987    3.088932
55.737856    17.545640    4.310623
27.869186    9.844165    7.477900
24.041551    9.507864    6.275125
24.824690    10.898633    6.304107
23.988854    8.467403    5.437478
23.167629    9.152431    5.071611
23.493141    10.294983    4.970494
25.244420    9.965233    4.495940
27.814530    12.163795    4.734933
25.310241    8.920405    3.699487
24.045350    9.477352    3.311825
23.973536    10.469110    3.101767
55.004919    17.129623    4.249856
53.318178    18.764399    3.627488
36.565623    14.381930    2.148629
23.695125    9.286898    6.177239
24.593668    10.707335    6.237069
23.973177    8.379246    5.428072
23.727563    9.289580    5.187922
23.545323    10.231859    4.974870
23.840919    8.329283    4.432065
27.345900    11.859047    4.648941
25.055026    8.744134    3.658245
26.957836    10.529854    3.708501
23.973648    10.381699    3.097646
55.032432    16.953155    4.247943
53.691188    18.710747    3.648943
36.596549    14.264604    2.147865
25.121243    9.757037    6.541188
24.821345    10.715994    6.286442
24.155873    8.360029    5.463606
23.883847    9.266361    5.215852
23.727669    8.208124    4.406309
25.048452    9.710656    4.450342
27.307723    11.743088    4.636304
25.119186    8.680166    3.663707
26.854036    10.394466    3.689818
27.792156    11.934168    3.586289
55.681298    19.212906    3.780170
36.587979    14.132113    2.144807
25.138363    9.675033    6.537886
23.561122    10.086280    5.959403
24.047267    8.239917    5.433298
23.920396    9.196208    5.217648
22.842105    9.760084    4.813543
33.040578    12.692539    5.863352
26.342039    11.232180    4.466479
25.230055    8.631922    3.675998
26.855238    10.300308    3.685623
26.252554    11.177783    3.383178
55.712594    19.032632    3.778313
25.168835    9.598211    6.538122
23.515744    9.981599    5.940152
24.090029    8.172071    5.437269
23.948496    9.122778    5.217648
23.468553    9.942721    4.939104
33.079360    12.591112    5.863352
26.146127    11.053969    4.427490
25.840024    8.752146    3.760940
26.646570    10.126607    3.652705
25.997626    10.975145    3.345971
55.523102    21.055217    3.247159
25.726326    9.720512    6.675163
23.678226    9.964946    5.973445
24.105717    8.095013    5.435179
23.969955    9.046841    5.216251
23.531532    9.884360    4.945953
25.000149    9.428184    4.426155
25.255921    10.586394    4.271226
26.181400    8.778327    3.806689
24.742073    9.316062    3.387703
26.253774    10.988502    3.374583
25.498467    9.545123    6.608412
23.450701    9.784613    5.908444
24.174982    8.035825    5.445212
24.056339    8.995224    5.229020
26.886926    11.196868    5.643956
24.999383    9.340390    4.420925
24.250874    10.077753    4.096006
26.239235    8.708259    3.811195
24.751022    9.232831    3.385034
26.083741    10.823411    3.348443
55.766995    18.479823    3.770307
25.488452    9.452321    6.598269
23.440107    9.695867    5.898253
24.114061    7.933503    5.425982
24.073714    8.917633    5.226825
27.032766    11.160408    5.667356
25.274953    9.355084    4.464561
24.201283    9.970186    4.082444
26.252652    8.623389    3.809283
25.027646    9.248651    3.418969
26.272030    10.807182    3.368342
59.993621    17.279019    4.605561
55.747567    18.283766    3.765184
55.669569    20.526723    3.244538
25.747200    9.458523    6.657709
23.451720    9.616518    5.893723
24.167194    8.868039    5.241190
23.681474    9.691906    4.958509
26.133453    10.672515    4.402833
26.424069    8.589971    3.830314
24.812796    9.082833    3.385796
28.407112    11.583692    3.637508
55.773025    18.102788    3.763134
55.618794    20.314384    3.237932
25.916730    9.430662    6.694033
23.559613    9.576433    5.913427
24.154687    8.779460    5.232611
23.670161    9.602599    4.949948
24.192398    9.793325    4.070732
26.513482    8.529188    3.839464
25.231257    9.148330    3.439051
30.980827    12.522473    3.962132
55.758942    17.909317    3.758459
23.600629    9.508840    5.916371
24.032149    8.651543    5.200291
23.684024    9.523708    4.946714
24.232418    9.723105    4.072427
26.533861    8.446003    3.838644
24.903534    8.943153    3.390626
28.261949    11.322752    3.609956
55.616436    19.927599    3.230615
27.845745    9.939543    7.176390
23.619739    9.432416    5.913880
24.032735    8.568558    5.194705
23.794297    9.483351    4.963645
26.156207    10.401962    4.390350
26.593663    8.375271    3.843561
25.109351    8.930191    3.414902
27.911685    11.083169    3.560856
35.165903    12.478485    2.040463
30.972110    12.258368    0.288946
27.828465    9.837225    7.164125
25.548639    10.111941    6.389038
24.082009    8.502943    5.199692
25.413872    10.038597    5.295050
24.875333    9.804297    4.170285
25.136632    8.853115    3.414902
36.610509    14.407426    4.664954
53.372198    18.754755    3.093510
25.588610    10.037067    6.391303
24.107982    8.429020    5.199692
25.442721    9.959866    5.294669
24.802217    9.687672    4.153025
25.364098    8.845854    3.442101
36.613833    14.279162    4.659774
53.726550    18.694287    3.110710
25.565720    9.937695    6.377940
24.071688    8.333541    5.186326
24.091086    9.345617    5.007401
24.810629    9.603331    4.149481
69.239623    21.107494    9.978646
25.373304    8.761845    3.439687
36.623197    14.153520    4.655417
23.955488    9.227280    5.969142
24.121243    8.267911    5.191513
23.936371    9.201211    4.969353
24.890714    9.546629    4.157957
69.301205    20.894112    9.978236
25.332491    8.660856    3.430535
36.600602    14.015882    4.647057
55.564008    18.952230    3.210303
24.214822    9.241959    6.026668
24.137215    8.190721    5.189518
23.956231    9.124588    4.967641
25.244073    9.593420    4.212048
25.435984    8.609173    3.440958
36.621146    13.895072    4.644231
55.621889    18.781673    3.210303
24.169266    9.139720    6.008323
23.914306    9.024705    4.953182
25.369553    9.552136    4.228076
25.630628    8.587501    3.463708
36.637578    13.772870    4.640934
37.402970    12.502043    2.156546
25.600920    9.591435    6.356877
27.522679    10.290069    5.693990
25.491313    9.508791    4.243486
26.893940    8.919094    3.630717
36.613587    13.635795    4.632574
55.568295    18.384518    3.200639
25.595526    9.499969    6.348271
27.587260    10.217857    5.700839
25.466611    9.410676    4.234548
69.322982    19.976001    9.945324
25.322832    8.311906    3.415156
36.625433    13.512404    4.628806
60.080881    17.283288    4.012139
55.618742    18.212085    3.200311
26.771850    9.843227    6.632505
27.637834    10.140274    5.704834
25.492579    9.331482    4.234086
25.257650    8.204759    3.402955
36.662988    13.398611    4.628336
55.655358    18.035207    3.199219
27.201870    9.906704    6.731478
24.024175    8.730895    4.953372
25.497865    9.244808    4.230233
69.228746    19.489597    9.914461
55.788332    17.933393    7.508895
55.613332    20.130887    7.012797
55.738000    17.873217    3.200803
69.407591    16.749434    0.048600
27.229387    9.822211    6.730798
35.223241    12.648821    5.837259
69.324479    19.287205    9.919651
26.147826    8.316905    3.515946
55.545829    19.913925    6.996548
55.684073    17.667705    3.194578
72.531758    17.296142    2.771985
27.277738    9.745180    6.735328
27.435001    9.780311    5.644147
37.290383    13.262124    6.173058
25.491993    8.022265    3.424435
55.598924    17.453124    3.186606
76.973006    18.076048    0.053819
27.318525    9.665346    6.738046
37.329962    13.147328    6.172904
26.647269    8.296065    3.576191
57.229799    15.516686    3.805404
55.616926    17.271510    3.184586
76.767015    17.779344    0.053637
37.368256    13.032089    6.172596
57.251107    15.334063    3.803674
76.800725    17.539068    0.053622
27.410445    9.509033    6.746199
23.645949    8.185054    4.848929
37.423939    12.922866    6.175215
25.634664    8.836889    3.215038
57.301743    15.159368    3.803931
76.914660    17.316981    0.053665
27.481864    9.439448    6.756617
23.626372    8.097193    4.839797
37.451257    12.803835    6.173212
57.346049    14.982993    3.803803
87.572412    19.434432    0.061059
27.506084    9.353523    6.755485
23.740352    8.054951    4.858060
37.495040    12.690460    6.173983
25.473902    8.606957    3.188192
57.388849    14.806239    3.803610
27.513419    9.261945    6.750276
27.490880    9.160556    6.737819
26.439735    8.752906    3.302287
23.533719    7.744050    4.800987
55.688476    18.246355    6.948391
23.520027    7.659653    4.793378
69.223560    19.701380    9.222447
55.741359    18.074500    6.948037
59.011109    14.422052    1.675621
23.463056    7.561561    4.777016
69.268396    19.484614    9.220414
55.826809    17.913112    6.951805
59.058966    14.241879    1.675731
69.400367    16.720294    -0.640422
23.624574    7.533685    4.805173
69.159653    19.225254    9.198045
27.096959    8.602982    3.370933
85.510018    17.058751    0.059352
23.546461    7.429268    4.784626
69.416299    19.067369    9.224354
54.897314    17.244065    6.822756
85.266590    16.738348    0.059147
69.169101    18.771441    9.183809
57.286744    15.502745    3.245303
76.780683    17.769274    2.173832
85.357795    16.484449    0.059175
69.245528    18.564283    9.186351
57.350433    15.331304    3.246231
89.771486    17.085401    3.397174
76.928392    17.554980    2.176479
86.795170    16.485984    0.060136
76.835387    17.516827    -0.706994
57.384652    15.151969    3.245521
57.424101    14.974080    3.245139
57.284112    14.750030    3.234656
80.158623    17.260033    2.261707
97.034378    17.199888    0.067079
60.000904    17.440746    7.408775
97.798977    17.026113    0.067571
60.056036    17.257133    7.409011
81.939178    17.118034    2.308938
87.505152    14.405537    0.060365
87.779275    14.207217    3.305675
87.808637    13.935653    3.305155
76.837097    17.752132    1.424715
75.742018    17.287901    4.248335
36.673353    9.711133    5.917087
76.537982    17.222700    4.289996
89.056436    16.617497    2.498859
112.371314    16.380746    0.077297
56.902448    14.601596    2.655312
61.376774    8.370948    0.042165
82.177706    17.135872    1.516566
58.887091    14.527995    0.526132
88.686913    17.078006    1.631665
76.920554    17.481524    0.684262
76.946499    17.239331    0.684020
93.576949    17.168517    5.202499
109.019182    15.532472    3.037465
97.073077    17.153017    1.780903
88.437343    11.817784    5.726038
82.147849    17.085702    0.727842
130.639871    12.536114    0.089332
85.255582    17.187008    0.754428
106.810166    17.188412    1.954472
87.173128    17.017629    0.770458
88.595831    17.013364    0.782567
90.137218    17.022796    0.795717
97.667199    17.206367    0.860262
106.880753    17.143559    0.938988
100.076886    14.481312    0.877159
100.231736    14.189911    0.878130
87.464285    2.733204    0.059564
87.248794    1.922867    0.059403
87.547232    1.660739    0.059602
56.969160    3.676760    1.031353
78.383439    -2.843111    0.053389
72.309039    -2.844940    0.049257
72.334937    -3.068251    0.049281
66.757910    -3.012377    2.484262
66.639065    -3.031489    0.045407
66.638446    -3.236357    0.045413
66.609225    -3.439806    0.045400
66.606343    -3.644581    0.045405
66.596847    -3.849025    0.045407
66.589718    -4.053626    0.045410
66.731654    -4.267794    0.045516
66.705271    -4.471635    0.045507
87.532271    2.912204    0.759719
65.183722    -5.149817    2.430767
58.548937    -4.787912    4.333503
58.548875    -4.968780    4.334607
59.521563    -5.092137    0.040663
58.545280    -5.149431    4.335490
63.283042    -5.586183    2.361706
58.538145    -5.329835    4.336152
59.470279    -5.455523    0.040650
58.433150    -5.501083    4.329604
87.570046    1.300513    0.759710
58.118214    -5.651372    4.307533
88.348901    -5.392720    2.441481
88.400779    -5.668158    2.443383
171.475042    1.494289    1.487517
63.221715    -6.559537    2.362895
49.745337    0.280872    0.431523
45.344057    -4.862117    0.031042
45.374977    -5.147239    0.031084
57.696416    -2.412774    7.399590
45.294410    -5.278899    0.031040
57.718470    -2.591107    7.403403
63.547195    -5.250667    1.758808
55.051281    -6.587278    0.037740
55.029821    -6.756020    0.037739
63.649018    -5.618908    4.100650
67.477590    -8.469331    2.528173
40.016164    -5.037457    0.027453
65.516893    -6.021021    1.814780
39.999529    -5.160074    0.027452
65.216973    -8.592383    2.445404
65.308035    -6.203940    1.809514
39.999375    -5.284862    0.027463
58.047411    -5.663279    3.742960
61.892460    -8.347634    2.321696
61.808153    -8.529418    2.319504
111.111929    -3.123227    0.964222
61.960797    -8.744279    2.326228
37.617269    -5.322837    0.025860
56.383384    -8.093488    10.571551
58.361149    -8.418970    2.192044
37.608678    -5.439365    0.025866
56.300541    -8.254950    8.405675
80.943259    -3.012528    3.661158
35.464908    -5.240441    0.024402
56.211355    -8.418115    8.396176
57.810162    -2.270578    6.859846
80.945611    -3.261327    3.661699
36.178163    -5.445742    1.360081
35.419001    -5.344745    0.024382
56.449300    -8.630898    8.435633
57.809867    -2.448220    6.860670
63.886721    -5.078484    3.504552
35.432086    -5.457951    0.024402
57.785218    -2.624801    6.858669
62.779875    -7.522479    1.744056
35.382573    -5.561506    0.024380
57.775905    -2.802023    6.858551
80.905184    -4.005846    3.661383
35.362382    -5.669556    0.024378
40.178359    -5.073103    -0.363311
95.377163    -8.801073    1.730416
53.854481    -8.973624    0.037163
56.430252    -9.516004    8.453608
61.986650    -8.167198    4.012460
65.341648    -8.644053    1.818034
57.953531    -5.527115    1.051746
53.763600    -9.128092    0.037119
39.926409    -5.290377    -0.361320
60.203866    -8.120289    3.898653
62.060771    -8.403836    1.727458
58.122372    -5.723210    1.055124
41.383692    -7.156899    0.028587
37.655896    -5.216793    1.048590
45.383076    -4.609420    0.824114
41.439344    -7.297530    0.028641
37.627987    -5.220959    -0.340803
32.700007    -3.333925    -0.600137
37.646641    -5.333277    1.048783
45.354799    -4.747174    0.823861
37.597934    -5.334409    -0.340678
32.850712    -3.451155    -0.603095
56.254504    -8.070353    9.973703
45.309205    -4.882977    0.823301
37.821865    -5.484605    -0.342858
56.271385    -8.249044    9.981136
56.428515    -10.452104    2.133422
36.211008    -5.356742    1.009685
45.315873    -5.024385    0.823699
37.768263    -5.595193    -0.342526
32.836865    -3.653542    -0.603241
56.319844    -8.432728    9.994273
56.355918    -10.617589    2.131899
36.189458    -5.467064    1.009547
56.395851    -10.646517    0.039065
35.332536    -5.345180    -0.320583
56.252815    -8.599224    9.987013
56.341726    -10.794010    2.132605
36.176470    -5.578676    1.009657
61.499747    -7.201029    1.118652
35.373289    -5.462404    -0.321103
33.845560    -3.976164    -0.622208
56.333218    -8.788466    10.006027
61.495231    -7.391821    1.118978
66.333551    -5.540054    0.577414
38.598913    -7.532346    0.026769
35.388959    -5.576038    -0.321399
33.815337    -4.077828    -0.621879
56.267081    -8.955060    9.999113
65.816811    -8.088212    3.626149
30.218370    -5.981720    1.145171
40.132413    -4.948928    0.730529
30.133065    -5.976312    0.020910
35.361813    -5.682997    -0.321310
33.544675    -4.149638    -0.617133
56.414343    -9.156045    10.030228
30.122481    -6.058833    1.142236
54.123239    -8.856927    1.512749
40.024793    -5.060366    0.728849
30.172426    -6.080386    0.020951
33.514924    -4.250393    -0.616823
56.386958    -9.329239    10.030400
63.841817    -8.243455    3.520058
64.405892    -5.969652    2.923616
40.115176    -5.196881    0.730782
30.320176    -6.207020    0.021066
36.851094    -6.154527    -0.335179
56.342531    -9.499569    10.027634
56.133058    -9.509596    3.653746
41.552162    -7.061805    1.162576
65.202943    -8.650455    1.188286
30.288262    -6.297365    0.021057
34.451563    -4.584140    -0.634567
56.311181    -9.672047    10.027289
56.068217    -9.675656    3.651440
61.000679    -8.257440    3.366136
36.782568    -7.842430    8.432184
38.761965    -8.264458    7.355598
56.357889    -9.858168    10.040945
56.048097    -9.849353    3.652081
37.620528    -5.226199    0.686184
34.335640    -4.783305    -0.632960
38.761415    -8.388747    7.360343
56.377805    -10.040005    10.049933
38.670827    -8.367022    5.844662
56.098169    -10.035669    3.657333
38.679212    -8.399229    1.471418
37.595408    -5.340326    0.686021
45.165125    -4.750732    0.393946
33.386394    -4.755526    -0.615727
36.749959    -8.071534    8.435903
56.263476    -10.243480    3.670141
38.382939    -8.458286    1.461127
37.616446    -5.461101    0.686708
45.247762    -4.899824    0.394797
38.503990    -8.499760    0.026840
32.701820    -4.760424    -0.603369
36.599303    -8.156228    8.407025
56.425558    -10.406108    10.069639
37.777731    -8.416766    5.717379
56.404486    -10.448036    3.681413
37.796052    -8.450627    1.439766
56.456198    -10.488191    1.583887
36.234670    -5.374057    0.661781
45.308047    -5.047033    0.395456
37.994698    -8.509664    0.026503
32.212363    -4.790140    -0.594606
36.877709    -8.337111    7.016923
56.414666    -10.583165    10.073441
36.840842    -8.326748    5.579428
56.326075    -10.612349    3.678403
37.583808    -8.524325    1.432671
38.689426    -7.310421    1.086061
36.209114    -5.483851    0.661618
37.439879    -8.506111    0.026134
31.379032    -4.764664    -0.579491
35.608889    -8.165173    8.190877
36.810751    -8.440761    7.009077
56.406118    -10.760808    10.077763
32.065220    -7.350837    4.859568
35.823563    -8.212424    4.065343
56.366761    -10.799188    3.683206
37.550662    -8.638022    1.432411
30.297136    -5.821011    0.850976
36.195085    -5.595371    0.661672
61.529587    -7.236503    0.537417
37.109575    -8.550879    0.025922
35.474373    -8.248965    8.165718
56.393146    -10.937747    10.081393
56.374298    -8.796260    9.451769
32.069496    -7.455449    4.863659
56.435405    -8.836067    7.319645
56.302997    -10.966153    3.681221
30.220269    -5.902437    0.849322
49.522560    -7.811294    0.905742
40.138055    -4.845533    0.350706
29.271571    -6.839466    0.020461
34.974983    -8.246026    8.056550
56.369952    -11.112803    10.083295
56.374326    -8.973515    9.456344
32.054177    -7.555618    4.864829
56.236782    -11.132442    3.679108
30.200058    -5.994734    0.849267
53.854625    -8.664017    0.985455
40.125980    -4.969021    0.350732
29.294239    -6.939611    0.020492
30.110012    -5.983416    -0.275406
34.696125    -8.292724    7.998137
34.913623    -8.344709    6.662190
56.508464    -11.320323    10.114236
32.082801    -7.666338    4.872720
32.035217    -7.654967    3.643274
56.310961    -11.326765    3.686216
35.539629    -8.520564    1.358632
30.181525    -6.087359    0.849267
53.886991    -8.838910    0.986538
40.019279    -5.080516    0.349934
29.576185    -7.102303    0.020704
30.067010    -6.070816    -0.275182
34.529215    -8.364900    7.965540
38.528181    -7.835758    8.403699
34.851545    -8.442987    6.655256
32.078360    -7.769388    4.875642
36.289297    -4.678946    4.338446
32.035732    -7.759063    3.646023
56.324835    -11.509462    3.689419
65.287712    -8.485042    2.975814
34.868544    -8.472880    1.333965
30.169562    -6.181330    0.849460
47.874672    -8.003635    0.876913
39.999540    -5.202753    0.349899
35.063434    -8.533849    0.024564
30.572313    -6.270521    -0.279981
34.499597    -8.469864    7.964665
38.409149    -7.934339    8.383006
34.864630    -8.559481    6.662738
56.389714    -11.656869    10.105594
32.073589    -7.872483    4.878565
32.060041    -7.869157    3.651520
56.291213    -11.682615    3.689547
65.257415    -8.684775    2.975633
34.513444    -8.498815    1.321371
30.196452    -6.283431    0.850756
41.375218    -7.047616    0.758256
39.976452    -5.324522    0.349838
34.553575    -8.522131    0.024225
30.602857    -6.374685    -0.280438
32.777640    -8.164143    8.912207
38.722474    -8.123011    8.456790
56.408628    -11.841350    10.115446
32.060804    -7.973712    4.880319
32.071435    -7.976355    3.655587
56.298071    -11.864313    3.692365
61.839271    -8.423033    2.820936
34.528901    -8.615063    1.322968
30.103681    -6.360545    0.848688
45.956869    -7.973189    0.842665
34.423460    -8.602158    0.024152
32.627747    -8.233200    8.878278
38.148363    -8.124844    8.336812
33.011436    -8.319602    6.318224
38.700085    -8.247998    6.944376
32.075521    -8.081945    4.886310
32.035249    -8.071798    3.654268
61.828969    -8.614919    2.821659
34.448054    -8.707242    1.320888
45.981423    -8.122842    0.843568
37.631480    -5.247387    0.329593
34.418235    -8.713127    0.024167
37.832685    -8.179025    8.273269
32.932407    -8.407222    6.308005
38.674595    -8.366690    6.944376
56.178235    -10.005856    9.452749
31.777393    -8.110588    4.844662
56.429883    -10.081164    7.345319
36.154418    -5.113350    4.329498
32.004554    -8.168567    3.653609
33.197519    -8.499592    1.273931
38.695545    -8.424260    1.092348
31.301312    -8.026330    0.021995
37.291612    -8.181887    8.160398
31.107355    -8.043045    5.963126
38.648748    -8.485302    6.944376
56.500619    -10.242214    9.512237
31.439167    -8.127081    4.796875
36.913623    -8.117189    5.210281
56.154714    -10.209882    7.313544
31.592495    -8.166716    3.609412
32.790163    -8.502574    1.259294
38.458686    -8.496359    1.086392
31.280412    -8.123328    0.021998
30.386849    -7.956290    7.042535
36.856834    -8.205095    8.070728
30.683052    -8.033845    5.886486
56.345596    -12.551953    10.131003
31.109753    -8.143829    4.750405
36.349039    -8.110028    5.134079
31.120177    -8.146558    3.558288
56.369355    -10.469387    3.135172
32.703998    -8.587398    1.256991
37.763302    -8.464327    1.067477
56.332824    -10.487014    1.035201
35.415532    -5.271127    0.310596
29.929941    -7.944359    8.170097
30.099147    -7.979712    6.981497
36.696990    -8.287756    8.041256
30.525208    -8.092668    5.860940
36.857052    -8.329312    6.631504
35.877608    -8.120474    5.070987
30.732829    -8.145989    3.516840
56.340894    -10.643018    3.135390
31.185397    -8.291000    1.199595
29.433323    -6.692135    0.832585
30.261334    -5.729615    0.556418
35.335923    -5.370140    0.310041
30.993228    -8.252073    0.021831
29.478687    -7.921473    8.053513
36.185249    -8.288940    7.934655
30.178321    -8.099877    5.799080
36.820764    -8.439929    6.629602
56.417528    -10.764387    9.514525
30.706633    -8.239953    4.696481
35.533903    -8.157363    5.025921
30.502259    -8.185110    3.493312
56.420746    -10.837479    3.141669
54.315235    -8.419242    2.484360
31.000595    -8.343782    1.193465
29.424343    -6.785099    0.832916
30.262267    -5.826019    0.556761
35.368689    -5.486187    0.310475
30.932039    -8.337491    0.021806
32.548875    -7.512779    -0.299681
29.543015    -8.026608    6.863797
36.164411    -8.401023    7.935700
29.706436    -8.071009    5.713134
56.310189    -13.089191    10.145869
29.967115    -8.140147    4.587172
32.029527    -7.456395    4.533476
56.332866    -10.958068    7.353707
30.159515    -8.192410    3.456922
29.395600    -6.873519    0.832696
30.249158    -5.919795    0.556852
49.531678    -7.838761    0.435010
30.814665    -8.407344    0.021742
29.094538    -6.809549    -0.268068
29.002664    -7.975426    6.743909
35.011460    -8.246482    7.688219
29.353521    -8.071907    5.649997
56.431786    -13.300072    10.175082
56.586589    -11.156921    9.554402
29.582391    -8.133178    4.532079
32.029638    -7.560088    4.536754
56.417694    -11.154313    7.369214
56.361000    -9.032298    6.768005
29.897520    -8.219818    3.429766
29.381183    -6.965285    0.832889
30.118080    -5.990141    0.554774
29.239883    -6.938256    -0.269602
28.616535    -7.972907    7.837691
28.808850    -8.017277    6.704530
34.888025    -8.330465    7.666690
29.020775    -8.076254    5.590693
34.953928    -8.351360    6.307051
56.478577    -11.315745    9.541982
29.354298    -8.167415    4.500953
32.044831    -7.667538    4.542216
29.473814    -8.200670    3.384030
29.376199    -7.059363    0.833358
30.159343    -6.094595    0.555876
47.802310    -7.866029    0.420238
30.922374    -8.640936    0.021855
29.585962    -7.116326    -0.272993
32.784577    -7.926730    8.533557
34.873711    -8.440220    7.669198
28.810366    -8.113015    5.554927
34.775934    -8.421698    6.279566
56.377856    -11.475584    9.530868
28.856790    -8.124457    4.428470
32.062554    -7.775854    4.548088
29.109830    -8.195700    3.345110
29.361201    -7.151111    0.833551
30.164989    -6.192120    0.556328
47.759214    -8.009505    0.420073
29.902652    -8.454974    0.021152
32.677245    -8.006971    8.511973
34.841003    -8.545541    7.667735
28.442094    -8.103570    5.488689
33.909117    -8.321995    6.127624
56.428369    -11.666272    9.545414
28.550109    -8.132729    4.385214
32.044321    -7.875602    4.548908
38.874955    -8.058423    5.087274
28.764319    -8.193749    3.308279
57.732807    -12.010576    3.224609
34.455591    -8.503945    0.978914
30.180108    -6.291778    0.556960
41.394537    -7.072746    0.364281
29.780427    -8.519172    0.021084
27.468747    -7.936140    8.739334
32.736266    -8.127977    8.533803
36.557061    -9.085436    8.051498
38.792312    -8.133686    8.069768
33.847103    -8.416955    6.121056
56.360450    -11.832648    9.540021
28.536431    -8.223568    4.386968
32.066148    -7.985367    4.555462
38.395800    -8.082034    5.027792
28.505053    -8.214526    3.281343
57.956991    -10.079482    2.658970
34.540861    -8.637501    0.982085
30.163597    -6.384961    0.557014
45.943768    -7.995182    0.404529
27.466766    -8.017065    7.549164
32.710236    -8.228136    8.533557
27.492367    -8.015686    6.420562
36.421855    -9.170568    8.027879
38.762384    -8.251641    8.068770
28.372013    -8.272156    5.484857
33.398014    -8.414161    6.044480
38.796846    -8.269594    6.571327
32.112577    -8.101639    4.565568
38.043936    -8.129938    4.984959
28.151464    -8.206253    3.243523
34.489002    -8.737048    0.981368
45.923946    -8.136970    0.404572
31.139465    -7.934673    8.130082
32.894149    -8.389735    7.255963
38.145932    -8.242826    7.945676
27.474170    -8.101918    5.316067
32.973118    -8.414779    5.972226
38.814683    -8.397970    6.578682
28.218797    -8.319897    4.345903
31.804434    -8.127764    4.525282
37.361598    -8.104060    4.898786
27.859214    -8.213879    3.212739
33.184913    -8.515112    0.944999
38.791652    -8.460341    0.717289
28.739979    -8.508464    0.020402
31.293190    -8.036690    -0.289849
27.340158    -8.162488    7.527989
26.904996    -8.023876    6.294767
31.017205    -8.012444    6.847327
37.810346    -8.291808    7.881036
27.307854    -8.144020    5.288695
31.159132    -8.053749    5.648118
38.729957    -8.504106    6.568713
27.464113    -8.189056    4.233526
31.414919    -8.130977    4.473388
37.000420    -8.144655    4.854682
56.220472    -10.252631    6.776011
32.803566    -8.524612    0.934880
38.487292    -8.517739    0.712141
31.244192    -8.126366    -0.289625
24.540815    -7.408813    6.763430
26.779358    -8.075954    6.271140
30.742711    -8.042229    6.792145
31.110457    -8.143070    5.643796
31.161759    -8.167541    4.440887
36.673230    -8.190676    4.815027
56.354904    -10.514915    2.591194
31.017027    -9.377552    1.204610
32.767591    -8.622668    0.934604
37.738098    -8.473465    0.698756
56.362037    -10.522353    0.497360
31.015860    -9.389608    0.022058
30.857460    -8.126935    -0.286269
25.876815    -7.908234    8.270476
26.262580    -8.008089    6.155847
30.360566    -8.041859    6.713135
36.872687    -8.323631    7.696096
27.237620    -8.305403    5.284864
36.850634    -8.328792    6.258524
27.203279    -8.293374    4.201084
56.352807    -10.693533    2.592594
30.821825    -9.421836    1.198146
31.170388    -8.304704    0.889771
29.475235    -6.713230    0.546140
42.149365    -8.002855    0.372157
31.024200    -9.496134    0.022085
31.048811    -8.279277    -0.288279
25.856999    -7.988997    8.271938
29.568784    -7.922102    8.995565
25.934357    -8.003479    7.160889
29.872962    -8.003598    7.824471
34.454180    -7.875557    8.578411
25.860236    -7.972201    6.067243
36.849841    -8.437371    7.696694
25.955799    -8.001661    5.040893
30.203737    -8.104085    5.488224
36.594120    -8.388903    6.219301
26.925290    -8.298993    4.162066
30.844137    -8.286879    4.402785
35.975563    -8.266933    4.729998
26.324906    -8.113941    3.047056
56.352104    -10.872616    2.594084
30.931469    -8.342765    0.883678
29.449631    -6.802502    0.546050
38.311171    -7.395947    0.338466
31.013610    -8.371889    -0.288189
25.524741    -7.972206    8.173431
25.625386    -7.994315    7.082315
29.373890    -7.966553    7.700118
33.943264    -7.868426    8.457172
25.816094    -8.045406    6.062649
38.216405    -8.873748    7.987772
25.854154    -8.057268    5.025930
29.920192    -8.126490    5.441207
36.082942    -8.388321    6.136769
25.917445    -8.075502    4.010086
29.907583    -8.133716    4.272641
31.996155    -7.455913    4.209781
30.863587    -9.642067    1.202047
29.433488    -6.893960    0.546140
30.229310    -5.932005    0.267225
30.715763    -8.392672    -0.285659
25.365589    -7.998744    7.017263
28.948251    -7.946539    7.594895
33.920855    -7.972970    8.457644
25.714042    -8.100237    6.044491
38.187093    -8.990504    7.987372
25.802118    -8.127982    5.020639
29.428809    -8.090056    5.356335
35.606685    -8.392829    6.060121
25.908589    -8.160030    4.012570
29.592137    -8.145511    4.231126
31.978921    -7.555409    4.210543
29.362589    -6.972448    0.545219
30.180567    -6.018656    0.266956
31.004136    -9.802977    0.022134
30.315921    -8.383458    -0.282179
28.674655    -7.966117    8.745484
25.271837    -8.054505    6.998130
28.800438    -8.001060    7.562519
33.916087    -8.081730    8.462597
25.470569    -8.109520    5.993079
28.873667    -8.028461    6.405665
34.938719    -8.338943    7.313246
25.467893    -8.108668    4.960422
29.065092    -8.086059    5.294624
34.946511    -8.350473    5.952094
25.619489    -8.155457    3.971652
29.265449    -8.152257    4.187972
31.985497    -7.660645    4.214483
29.931114    -8.369219    0.857263
29.378969    -7.071623    0.545923
30.211944    -6.121348    0.267399
26.185470    -8.367851    0.018712
30.039687    -8.406361    -0.279846
24.946054    -8.035063    6.914710
33.904358    -8.188939    8.465900
25.102816    -8.077337    5.912352
28.454471    -8.006029    6.318085
34.887257    -8.439874    7.307859
25.466295    -8.194293    4.964984
28.634361    -8.060958    5.220641
34.817173    -8.432569    5.934444
25.504883    -8.205236    3.957770
28.868443    -8.137188    4.134713
31.964733    -7.759441    4.214865
29.369764    -7.164803    0.546158
30.206734    -6.216830    0.267520
25.984578    -8.391601    0.018587
29.740509    -8.421112    -0.277299
24.446614    -7.966027    7.858910
24.688667    -8.035846    6.850167
33.464694    -8.191487    8.362352
24.874695    -8.088234    5.864440
28.279287    -8.050448    6.284642
38.147458    -9.352554    7.996750
28.452249    -8.103981    5.191947
34.243097    -8.404831    5.840962
25.059053    -8.146729    3.892447
28.572791    -8.148559    4.095929
32.050581    -7.884482    4.229354
29.346673    -7.254635    0.546140
30.193390    -6.310702    0.267572
25.608868    -8.357114    0.018336
29.301178    -8.393901    -0.273441
32.939509    -8.170124    8.237341
24.487297    -8.045420    5.778900
27.944349    -8.047860    6.215664
38.362989    -9.530260    8.048022
25.618234    -8.416994    5.004581
33.946208    -8.442464    5.794712
24.816835    -8.152252    3.858690
28.483886    -8.217783    4.086779
32.032014    -7.984214    4.230117
34.417110    -8.620199    0.640990
25.481490    -8.402135    0.018263
29.039979    -8.415566    -0.271243
27.469299    -7.995632    8.407157
24.144319    -8.022840    6.712664
27.516077    -8.009248    7.250531
32.919941    -8.272564    8.238756
24.301361    -8.067018    5.740833
38.306016    -9.640976    8.042236
38.822349    -8.266087    7.691738
24.478121    -8.125694    4.786705
33.320323    -8.395438    5.692241
38.787632    -8.289130    6.186311
24.685611    -8.193137    3.842177
32.080457    -8.100906    4.239776
38.298464    -8.205563    4.644113
38.686026    -8.329568    1.788676
28.695120    -8.404616    0.824755
34.387593    -8.725011    0.640936
25.088431    -8.357956    0.018000
28.811550    -8.445271    -0.269350
24.334188    -8.177895    7.846634
23.995845    -8.055335    6.678224
31.188898    -7.939371    7.811592
24.275572    -8.141224    5.740614
32.921891    -8.393368    6.917229
38.816958    -8.389509    7.695734
24.433500    -8.194189    4.782873
27.439266    -8.089217    5.020472
32.954105    -8.410769    5.634061
38.617177    -8.376672    6.163195
24.414620    -8.186434    3.803889
31.638400    -8.092614    4.184615
38.190627    -8.305086    4.634105
24.354671    -8.166333    2.841353
38.616372    -8.438619    1.786644
28.692204    -8.499426    0.825417
33.169572    -8.524366    0.618718
38.617314    -8.443062    0.342899
24.893970    -8.378109    0.017879
28.300395    -8.389809    -0.264811
23.658768    -8.023026    6.591232
36.011017    -7.873092    8.571186
26.846626    -8.000026    5.987622
30.979456    -7.999449    6.514229
27.351079    -8.154507    5.008891
31.200263    -8.065179    5.338417
37.853110    -8.332611    6.045303
24.186065    -8.192428    3.772178
27.410340    -8.182073    3.943388
31.440589    -8.144867    4.161737
24.305968    -8.233042    2.838605
38.233345    -8.477900    1.770118
28.741640    -8.610075    0.827595
32.840402    -8.547265    0.613064
38.066022    -8.444980    0.338232
27.960351    -8.382407    -0.261869
23.334608    -8.001651    7.540006
23.446520    -8.031339    6.538935
26.613162    -8.012850    7.031747
35.440877    -7.862448    8.441185
26.824763    -8.083200    5.988249
30.722503    -8.033720    6.465351
56.300497    -12.530304    11.177001
24.237643    -8.294294    4.754406
31.164873    -8.158114    5.336620
37.314363    -8.334124    5.963318
23.906228    -8.179484    3.732430
26.927046    -8.127864    3.877428
31.102680    -8.159237    4.120303
23.989066    -8.207827    2.804523
37.705224    -8.482244    1.746864
30.980926    -8.164873    0.578816
37.658491    -8.475873    0.334841
27.769905    -8.418252    -0.260326
23.172592    -8.025631    7.495576
25.857426    -7.871910    7.942802
25.984696    -7.910656    6.872074
35.416587    -7.971142    8.441185
23.270918    -8.043313    5.520309
26.533233    -8.084228    5.928678
30.414484    -8.052945    6.405699
36.875505    -8.325873    7.325710
24.150750    -8.347417    4.742363
27.259075    -8.309539    5.001285
36.842459    -8.347476    5.891967
23.754795    -8.209167    3.712701
26.661323    -8.136987    3.842741
23.832254    -8.235935    2.789131
37.561176    -8.570991    1.741400
28.550634    -8.744115    0.823624
30.889074    -8.242097    0.577570
37.086377    -8.466733    0.329983
27.430359    -8.407296    -0.257383
22.874344    -8.001014    7.407007
25.878086    -7.965032    7.956617
25.941773    -7.984635    6.867169
29.788030    -7.973251    7.484674
23.235997    -8.111132    5.517903
25.913917    -7.982498    5.795741
29.918285    -8.019868    6.306345
36.867972    -8.443131    7.329325
23.325779    -8.142472    4.585251
26.061585    -8.031970    4.786077
36.593270    -8.409130    5.856214
23.466105    -8.190079    3.671491
26.448806    -8.160914    3.815702
30.890151    -8.306396    4.098823
23.561007    -8.223200    2.760326
37.669986    -8.717493    1.747676
28.310732    -8.765733    0.817476
30.898390    -8.346210    0.578220
29.360209    -6.797705    0.261422
22.710824    -8.022103    7.361992
25.586939    -7.961439    7.874573
25.872722    -8.050360    6.855396
35.175332    -8.143925    8.395436
22.852099    -8.055859    5.432581
25.819278    -8.040157    5.780064
29.611721    -8.035148    6.246893
23.045686    -8.124103    4.535070
25.884483    -8.064426    4.758075
29.705130    -8.068843    5.099157
35.974537    -8.383225    5.761284
23.199219    -8.176861    3.633642
26.253421    -8.188923    3.791121
29.958178    -8.154425    3.978460
32.025545    -7.480664    3.899492
23.393180    -8.245225    2.743615
35.683351    -8.373171    1.656692
29.350899    -6.890491    0.261526
22.515865    -8.031019    7.306746
29.105288    -7.958723    8.543449
22.691317    -8.085119    6.355512
25.431746    -7.998809    6.745023
29.044097    -7.965422    7.309894
34.867606    -8.185467    8.327944
22.734430    -8.092879    5.410485
25.738522    -8.101714    5.767523
29.437636    -8.084954    6.215371
22.741846    -8.095519    4.480145
25.818283    -8.130783    4.750469
29.442421    -8.094558    5.058299
35.625558    -8.417217    5.709505
23.036089    -8.198903    3.612015
25.972138    -8.188703    3.754112
29.562945    -8.144344    3.929273
31.965725    -7.570185    3.895017
23.153339    -8.240635    2.718438
35.610844    -8.471509    1.654524
30.768544    -8.514044    0.576757
29.448301    -7.008752    0.262585
22.222095    -8.003171    7.219347
28.531762    -7.896053    8.382169
22.411655    -8.063045    6.284082
25.359045    -8.061522    6.732268
28.867828    -8.012388    7.271682
34.485103    -8.207382    8.242561
22.475338    -8.078425    5.354698
25.454482    -8.098221    5.709415
34.882708    -8.327104    6.949598
22.666939    -8.147293    4.470292
25.747228    -8.195316    4.741999
29.114255    -8.100490    5.006166
34.964427    -8.374352    5.607640
22.814393    -8.198945    3.581180
25.775109    -8.213605    3.729258
29.293223    -8.166812    3.896735
31.947177    -7.669378    3.895606
22.968000    -8.254148    2.699638
35.229248    -8.495012    1.637998
29.927748    -8.380317    0.561476
29.437353    -7.101645    0.262680
22.142613    -8.051375    7.201517
25.394746    -8.158739    7.838203
22.343189    -8.115920    6.271837
24.975150    -8.023933    6.636857
28.543723    -8.016829    7.196203
33.995801    -8.201215    8.131585
22.276173    -8.084096    5.313131
25.241460    -8.115810    5.667193
34.881806    -8.440086    6.954545
22.380278    -8.121876    4.418651
25.683521    -8.261903    4.734912
28.736951    -8.090582    4.945533
34.720610    -8.428671    5.572658
22.632901    -8.212212    3.556629
25.472563    -8.203363    3.689108
28.910043    -8.155654    3.849073
32.048934    -7.797874    3.910913
22.730474    -8.247617    2.674681
34.516931    -8.435385    1.606074
29.646012    -8.399595    0.556671
34.816139    -8.512371    0.310909
21.621352    -7.937025    7.039872
24.522756    -7.961673    7.576563
21.936911    -8.044610    6.164691
24.795508    -8.050224    6.595651
33.967644    -8.304781    8.130906
22.212785    -8.138301    5.303943
22.237087    -8.147205    4.395294
28.544053    -8.130870    4.916606
22.381876    -8.198923    3.521119
28.567270    -8.153657    3.806749
32.009431    -7.892359    3.909029
22.551071    -8.260904    2.656540
34.443376    -8.529476    1.603862
34.440436    -8.532576    0.307786
21.502743    -7.968429    7.009180
24.479983    -8.030888    7.570924
21.870416    -8.096433    6.152956
24.352489    -7.989063    6.484297
27.699201    -7.963322    6.995477
21.947018    -8.117388    5.246405
27.990584    -8.058200    5.930279
22.049688    -8.155360    4.363178
25.367523    -8.332353    4.685993
32.150645    -8.014007    5.167973
22.202594    -8.210594    3.496860
28.296257    -8.170271    3.773958
32.081410    -8.014594    3.920804
22.323326    -8.255241    2.632683
34.493593    -8.654312    1.607429
34.414097    -8.638198    0.307786
21.467447    -8.030340    7.005672
27.386634    -7.942220    8.073776
21.542957    -8.050443    6.067750
24.281854    -8.048487    6.472033
27.599056    -8.026283    6.976371
32.960943    -8.273312    7.901933
21.921097    -8.184340    5.246187
24.413870    -8.098394    5.497886
27.517903    -8.013622    5.835314
21.912188    -8.181013    4.340916
24.522010    -8.138066    4.534397
31.959219    -8.070513    5.141159
22.032720    -8.224701    3.474063
27.913065    -8.152486    3.726168
32.068224    -8.115905    3.922216
22.133077    -8.262163    2.613223
34.441703    -8.753698    1.606255
28.685740    -8.413490    0.540071
31.203861    -7.934247    0.279291
21.210989    -8.008672    6.929965
31.183920    -7.891976    8.776987
21.397833    -8.071113    6.033821
24.077787    -8.062916    6.424205
27.261985    -8.019051    6.897354
32.939183    -8.375355    7.902839
24.334203    -8.154923    5.485553
27.374752    -8.063123    5.810177
32.961485    -8.404917    6.591750
21.728738    -8.188564    4.309530
24.332568    -8.158154    4.503974
27.451701    -8.093598    4.741083
31.699785    -8.108536    5.103402
21.812053    -8.218658    3.443229
24.399845    -8.189712    3.548039
27.724305    -8.189752    3.704307
31.766136    -8.143231    3.888306
21.944856    -8.268698    2.593983
31.273304    -8.054132    0.280133
20.929845    -7.975972    6.846074
21.188626    -8.066543    5.981779
27.143180    -8.074666    6.873531
27.139524    -8.084406    5.765488
31.057260    -8.020913    6.215829
27.338817    -8.151565    4.725884
31.234778    -8.091769    5.032513
21.598107    -8.213802    3.413417
24.156010    -8.190414    3.516220
27.409181    -8.188175    3.665542
31.423814    -8.158301    3.849450
21.781890    -8.283694    2.577711
31.255219    -8.151807    0.280193
20.890103    -8.034310    6.841105
21.158363    -8.129430    5.980248
23.637060    -8.076963    6.319718
26.715335    -8.036685    6.771399
21.711842    -8.334694    5.214246
24.197655    -8.274654    5.466114
26.860326    -8.091039    5.711422
30.929929    -8.089329    6.195282
21.711129    -8.334420    4.316100
24.334240    -8.325156    4.513654
31.068360    -8.150451    5.009705
21.408410    -8.216927    3.387405
24.001437    -8.220190    3.497374
30.795501    -8.096105    3.775506
21.699768    -8.328757    2.571005
31.022987    -9.409944    0.585680
20.702204    -8.035040    6.787613
23.300964    -8.042034    7.243592
25.892185    -7.854540    7.661043
20.835823    -8.078951    5.896062
23.386732    -8.071636    6.259381
26.546445    -8.074774    6.734839
23.997457    -8.288514    5.426609
21.756969    -8.428694    4.330333
27.276961    -8.315707    4.723923
21.246573    -8.229686    3.365777
23.692435    -8.195660    3.455995
30.655362    -8.159894    3.761376
21.407185    -8.291897    2.539341
30.913676    -9.480452    0.584163
30.840421    -8.246054    0.276923
20.641838    -8.084565    6.775921
23.031570    -8.028217    7.167468
25.859687    -7.931400    7.658591
