3.522210    -10.033218    0.869562
2.207885    -9.648573    3.025356
2.608084    -9.692827    2.949652
3.002714    -9.684585    2.870882
3.407715    -9.691796    2.803171
2.222172    -9.696217    2.624554
2.634068    -9.789393    2.564825
3.027082    -9.789147    2.487029
3.428930    -9.787055    2.411347
2.250028    -9.804403    2.255335
2.639065    -9.816843    2.172776
3.030229    -9.812065    2.090810
3.436762    -9.830848    2.018104
2.255735    -9.829274    1.871654
2.664595    -9.917330    1.802212
3.059286    -9.915357    1.718949
3.464140    -9.933087    1.640776
2.279218    -9.929212    1.504897
2.667936    -9.942925    1.419161
3.055428    -9.921292    1.330221
3.459427    -9.936302    1.247512
2.278199    -9.924774    1.126361
2.082318    -7.770182    0.809599
3.085092    -10.030681    0.957650
3.490431    -10.041152    0.869318
2.180378    -9.664630    3.028279
2.570202    -9.670184    2.940348
2.971577    -9.689152    2.869520
3.372890    -9.687628    2.798959
2.193053    -9.705818    2.625319
2.596800    -9.770257    2.557713
2.992203    -9.782590    2.483019
3.402080    -9.806731    2.413611
2.220153    -9.812212    2.255554
2.602912    -9.802210    2.167759
2.996391    -9.809133    2.088216
3.389886    -9.793104    2.008211
2.221663    -9.818886    1.868369
2.632640    -9.919747    1.801175
3.024532    -9.910542    1.716498
3.426877    -9.924055    1.637539
2.247216    -9.929404    1.503873
2.634374    -9.939573    1.417522
3.022664    -9.923028    1.329204
3.428603    -9.945930    1.247395
2.245984    -9.923962    1.125481
2.057197    -7.771724    0.809099
3.049956    -10.025807    0.956287
3.457987    -10.047102    0.868910
2.149264    -9.664740    3.026233
2.539061    -9.672455    2.938656
2.943234    -9.702828    2.870882
3.342524    -9.696105    2.798433
2.159061    -9.693625    2.620217
2.566075    -9.775365    2.556977
2.961051    -9.788003    2.482076
3.364384    -9.795014    2.408176
2.188977    -9.814215    2.254460
2.571090    -9.803527    2.166296
2.967416    -9.822032    2.089014
3.358871    -9.800672    2.007641
2.185750    -9.799746    1.863443
2.596700    -9.906816    1.797372
2.990692    -9.908441    1.714536
3.398012    -9.939196    1.638310
2.215235    -9.929493    1.502851
2.600355    -9.934191    1.415610
2.993922    -9.937953    1.329966
3.399677    -9.961101    1.247983
2.215095    -9.928866    1.125261
2.033344    -7.777999    0.809099
3.014879    -10.020813    0.954924
3.424896    -10.051059    0.868340
2.117556    -9.661946    3.023310
2.506003    -9.667198    2.934709
2.911517    -9.705360    2.868975
3.309021    -9.695359    2.795274
2.130970    -9.707759    2.622258
2.538505    -9.792576    2.559429
2.927944    -9.786801    2.479481
3.330554    -9.794224    2.405458
2.157181    -9.813260    2.252710
2.539040    -9.803796    2.164624
2.935025    -9.823578    2.087418
3.336673    -9.834173    2.012397
2.153775    -9.797763    1.861800
2.567282    -9.918550    1.798063
2.956893    -9.906226    1.712575
3.361801    -9.932728    1.635536
2.182637    -9.926581    1.501389
2.567138    -9.931572    1.414108
2.960021    -9.935685    1.328441
3.360200    -9.945143    1.244686
2.182275    -9.924937    1.124052
2.006985    -7.774567    0.808097
2.982418    -10.024288    0.954379
3.390539    -10.051131    0.867443
2.085683    -9.658115    3.020095
2.472527    -9.659969    2.930198
2.869414    -9.672736    2.856715
3.283276    -9.717347    2.798696
2.097089    -9.695349    2.617155
2.506046    -9.790926    2.556977
2.902591    -9.811578    2.483491
3.296761    -9.793318    2.402740
2.124792    -9.809342    2.250303
2.505801    -9.799223    2.161907
2.899320    -9.813742    2.083428
3.303673    -9.835987    2.010685
2.121416    -9.793755    1.859793
2.524890    -9.879620    1.789593
2.922019    -9.900111    1.709961
3.322837    -9.917699    1.631375
2.151753    -9.931297    1.501097
2.535187    -9.933642    1.413289
2.928123    -9.939962    1.327806
3.318334    -9.921500    1.240448
2.156446    -9.952955    1.126471
1.978208    -7.761405    0.806095
2.951931    -10.034346    0.954470
3.353689    -10.043524    0.865895
2.058629    -9.676628    3.023895
2.445934    -9.679602    2.933863
2.839995    -9.682418    2.856988
3.248246    -9.711820    2.794221
2.067133    -9.700792    2.616900
2.477896    -9.806087    2.558939
2.866201    -9.798986    2.478066
3.264853    -9.797842    2.401381
2.090411    -9.795775    2.245709
2.472853    -9.795487    2.159398
2.868374    -9.819769    2.082830
3.268835    -9.832103    2.007831
2.090538    -9.796370    1.859063
2.495290    -9.890185    1.790112
2.888592    -9.898612    1.708163
3.287729    -9.913780    1.629063
2.119209    -9.928177    1.499636
2.502037    -9.930806    1.411786
2.894563    -9.938423    1.326408
3.284134    -9.920321    1.239035
2.123203    -9.946888    1.125041
1.948075    -7.742350    0.803491
2.912510    -10.013712    0.951653
3.319107    -10.042410    0.864917
2.028736    -9.681962    3.023602
2.416923    -9.689853    2.934709
2.812688    -9.699402    2.859440
3.210249    -9.697012    2.787114
2.038950    -9.714659    2.618941
2.450615    -9.824931    2.561882
2.835855    -9.806799    2.477830
3.232643    -9.801338    2.399796
2.062154    -9.810736    2.247678
2.440661    -9.794487    2.157517
2.836602    -9.822874    2.081633
3.230984    -9.818772    2.003075
2.060676    -9.803701    1.859246
2.463032    -9.890148    1.788729
2.863405    -9.925438    1.711268
3.251444    -9.905983    1.626135
2.087315    -9.927855    1.498613
2.469406    -9.929784    1.410557
2.861314    -9.937725    1.325137
3.254302    -9.932238    1.239270
2.089813    -9.939737    1.123502
1.925032    -7.751187    0.803791
2.884251    -10.031214    0.952470
3.284873    -10.042125    0.864020
1.994191    -9.664726    3.016295
2.386725    -9.695359    2.934145
2.775759    -9.683013    2.852084
3.185590    -9.722400    2.791589
2.008941    -9.719921    2.618686
2.415595    -9.812635    2.556732
2.808960    -9.826666    2.480661
3.198930    -9.800097    2.397078
2.031057    -9.812238    2.246584
2.408499    -9.793382    2.155636
2.803763    -9.822108    2.079638
3.200845    -9.828638    2.003075
2.031585    -9.814790    1.860158
2.434088    -9.903396    1.789766
2.831047    -9.927534    1.710124
3.212796    -9.890539    1.621975
2.054039    -9.920650    1.496567
2.438694    -9.936351    1.410421
2.828912    -9.939778    1.324247
3.220752    -9.932729    1.238093
2.056689    -9.933450    1.122073
1.904322    -7.769619    0.805093
2.853462    -10.040016    0.952470
3.251593    -10.044570    0.863368
1.962437    -9.660490    3.013079
2.355836    -9.697974    2.932736
2.745252    -9.688706    2.851267
3.146820    -9.704597    2.783692
1.976797    -9.714669    2.615625
2.377240    -9.786085    2.547902
2.766116    -9.790349    2.469339
3.166154    -9.801524    2.395040
2.002893    -9.827985    2.248772
2.377058    -9.795023    2.154382
2.770955    -9.821232    2.077643
3.169170    -9.833740    2.002124
2.000679    -9.817123    1.859428
2.402069    -9.904118    1.788556
2.799774    -9.933324    1.709634
3.184856    -9.907875    1.623207
2.023000    -9.923997    1.496128
2.407266    -9.939935    1.409875
2.791958    -9.925494    1.321197
3.189657    -9.940672    1.237857
2.022829    -9.923156    1.120204
1.876266    -7.758018    0.803291
2.819954    -10.039135    0.951562
3.218634    -10.047854    0.862797
1.932789    -9.666464    3.013079
2.321600    -9.686496    2.927097
2.718888    -9.709128    2.854809
3.118211    -9.717881    2.784745
1.948883    -9.730169    2.618176
2.341105    -9.767878    2.541279
2.736328    -9.799725    2.469575
3.132807    -9.800986    2.392549
1.972347    -9.832170    2.248334
2.346768    -9.801319    2.154173
2.738706    -9.822137    2.076047
3.137793    -9.839675    2.001363
1.969971    -9.820323    1.858881
2.371901    -9.912398    1.788729
2.766638    -9.932364    1.707999
3.151150    -9.907242    1.621512
1.992350    -9.929187    1.495982
2.373536    -9.933785    1.407963
2.763087    -9.939748    1.321959
3.153435    -9.932428    1.235620
1.994722    -9.941010    1.121523
1.848992    -7.749220    0.801789
2.787543    -10.041982    0.951017
3.182070    -10.039630    0.861249
1.903124    -9.672349    3.013079
2.289884    -9.685169    2.924559
2.676770    -9.672912    2.841732
3.086047    -9.720045    2.782639
1.920331    -9.742742    2.619962
2.311350    -9.775958    2.541524
2.702115    -9.793086    2.465801
3.097730    -9.794764    2.388698
1.941039    -9.832431    2.247022
2.315788    -9.804666    2.153337
2.704655    -9.816322    2.073054
3.102273    -9.832403    1.997938
1.936596    -9.809923    1.855779
2.340122    -9.913877    1.787692
2.737986    -9.947463    1.709143
3.117478    -9.906495    1.619817
1.963028    -9.941075    1.496859
2.342367    -9.938126    1.407553
2.728376    -9.932874    1.319926
3.122055    -9.939214    1.235267
1.966910    -9.960734    1.123062
2.339924    -9.941751    1.027896
3.147676    -10.037933    0.860271
1.873441    -9.678142    3.013079
2.256892    -9.678134    2.920330
2.645051    -9.673654    2.839552
3.050429    -9.711059    2.777374
1.891720    -9.755233    2.621748
2.282888    -9.789612    2.543241
2.670268    -9.794766    2.464150
3.067956    -9.805151    2.388925
1.909190    -9.829719    2.245053
2.283256    -9.801248    2.151038
2.672467    -9.817009    2.071458
3.070923    -9.838125    1.997177
1.911177    -9.839947    1.860341
2.309248    -9.919090    1.787346
2.698652    -9.923449    1.703587
3.085308    -9.910353    1.618892
1.933086    -9.949965    1.497297
2.307828    -9.927898    1.405095
2.694253    -9.927796    1.318146
3.089485    -9.942107    1.234443
1.931223    -9.940378    1.120094
2.321336    -10.000251    1.033203
3.113321    -10.036120    0.859293
1.843740    -9.683844    3.013079
2.231059    -9.701843    2.925405
2.611848    -9.668719    2.835738
3.013465    -9.697340    2.770793
1.860877    -9.756242    2.620472
2.253060    -9.797515    2.543487
2.635909    -9.786960    2.460140
3.034980    -9.805213    2.386660
1.873897    -9.808694    2.238927
2.252519    -9.805347    2.150410
2.640809    -9.819485    2.070261
3.030878    -9.815608    1.990709
1.879503    -9.838038    1.858881
2.275280    -9.910770    1.784580
2.664867    -9.919295    1.701462
3.055180    -9.920715    1.619047
1.900880    -9.947103    1.495982
2.275367    -9.926241    1.403866
2.660700    -9.924518    1.316621
3.058093    -9.948691    1.234089
1.896427    -9.923801    1.117565
2.291311    -10.010235    1.033503
3.074622    -10.019897    0.857092
1.813845    -9.688515    3.012787
2.201496    -9.709577    2.925687
2.581428    -9.673897    2.834921
2.984833    -9.710228    2.771846
1.831114    -9.762855    2.620727
2.223205    -9.805326    2.543732
2.608619    -9.805332    2.462734
3.002032    -9.805164    2.384395
1.838571    -9.786585    2.232583
2.223722    -9.817935    2.151665
2.609665    -9.823752    2.069463
2.999316    -9.820165    1.989758
1.848223    -9.837960    1.857786
2.244211    -9.914821    1.784062
2.627338    -9.900726    1.696886
3.026169    -9.934768    1.619817
1.866151    -9.930527    1.492621
2.243156    -9.925445    1.402773
2.631001    -9.935511    1.317002
3.023223    -9.943775    1.232323
1.867073    -9.935434    1.118225
2.259713    -10.013335    1.033103
3.042131    -10.023561    0.856603
1.786190    -9.705321    3.016295
2.167302    -9.696623    2.919766
2.549530    -9.673398    2.832469
2.944926    -9.686112    2.762370
1.800452    -9.764624    2.619707
2.188249    -9.790340    2.538091
2.576549    -9.805770    2.460847
2.970807    -9.810599    2.383489
1.807297    -9.785464    2.231051
2.191247    -9.814212    2.149365
2.581006    -9.837399    2.070660
2.967471    -9.823683    1.988616
1.821067    -9.860021    1.860888
2.210351    -9.906279    1.781296
2.599952    -9.920192    1.698847
2.993110    -9.935491    1.618430
1.833519    -9.924531    1.490867
2.210756    -9.923578    1.401544
2.596491    -9.928182    1.314969
2.990414    -9.945396    1.231381
1.837847    -9.947958    1.118995
2.228982    -10.020221    1.033103
3.007066    -10.018527    0.855381
1.757257    -9.715461    3.017756
2.135273    -9.692921    2.916665
2.519598    -9.680243    2.832197
2.920196    -9.711731    2.767108
1.771004    -9.772955    2.620472
2.157160    -9.792274    2.536864
2.540595    -9.791053    2.455186
2.938739    -9.813136    2.381904
1.777441    -9.791922    2.231270
2.160076    -9.816113    2.148320
2.548601    -9.836734    2.068864
2.934508    -9.823333    1.986714
1.798535    -9.908128    1.868917
2.177621    -9.902432    1.779395
2.565797    -9.913794    1.696396
2.956690    -9.924741    1.615194
1.802532    -9.927190    1.490429
2.179238    -9.925476    1.400861
2.563788    -9.927458    1.313825
2.957341    -9.945956    1.230322
1.807141    -9.952571    1.118885
2.197591    -10.024096    1.032802
2.972913    -10.016241    0.854403
1.717905    -9.667136    3.001095
2.106543    -9.704113    2.918075
2.488929    -9.684200    2.831107
2.883788    -9.698450    2.760791
1.740843    -9.777391    2.620217
2.126901    -9.797899    2.536619
2.506686    -9.783739    2.451413
2.908895    -9.823040    2.382130
1.745850    -9.788684    2.229301
2.126842    -9.808358    2.145185
2.515010    -9.831216    2.066071
2.903800    -9.830407    1.986333
1.766057    -9.901983    1.866727
2.145771    -9.902328    1.778185
2.536103    -9.924487    1.696886
2.922598    -9.921445    1.613190
1.771547    -9.929751    1.489991
2.147520    -9.926305    1.400042
2.531358    -9.927588    1.312808
2.922332    -9.939739    1.228438
1.777122    -9.961004    1.119214
2.163886    -10.017176    1.031400
1.691363    -9.690261    3.006649
2.075156    -9.703024    2.915819
2.460863    -9.698319    2.833014
2.849394    -9.691518    2.756316
1.710338    -9.779829    2.619452
2.093588    -9.789209    2.532695
2.475466    -9.786673    2.450233
2.873818    -9.815091    2.378054
1.716316    -9.796877    2.229957
2.095310    -9.808143    2.143722
2.476918    -9.807534    2.059488
2.875003    -9.843981    1.987284
1.732277    -9.887985    1.863078
2.109417    -9.880930    1.773172
2.502988    -9.921699    1.695088
2.889935    -9.922775    1.611958
1.740391    -9.931243    1.489406
2.117057    -9.932847    1.400042
2.500404    -9.933384    1.312554
2.887389    -9.933401    1.226554
1.745524    -9.960535    1.118555
2.132729    -10.021821    1.031200
1.656941    -9.668069    2.998172
2.039049    -9.679303    2.906797
2.431098    -9.705823    2.833014
2.815608    -9.686318    2.752367
1.680653    -9.786936    2.619962
2.062346    -9.789895    2.531223
2.441192    -9.777250    2.445987
2.842067    -9.818249    2.376695
1.686582    -9.804020    2.230395
2.059974    -9.789644    2.138287
2.443736    -9.802726    2.056894
2.845878    -9.856528    1.988045
1.700766    -9.886471    1.861800
2.081930    -9.900850    1.775592
2.469438    -9.916886    1.692964
2.859479    -9.931595    1.611958
1.708740    -9.929710    1.488383
2.083520    -9.924753    1.397994
2.467048    -9.929456    1.311029
2.850592    -9.920260    1.223845
1.705181    -9.909030    1.112178
2.101564    -10.026370    1.031000
1.627272    -9.673107    2.998172
2.009538    -9.686452    2.907079
2.401540    -9.714169    2.833287
2.781614    -9.680075    2.748155
1.650137    -9.789185    2.619197
2.031908    -9.794277    2.530732
2.415602    -9.802621    2.450469
2.812736    -9.829731    2.377374
1.656333    -9.808186    2.230176
2.028938    -9.791131    2.137242
2.411544    -9.801614    2.055098
2.813740    -9.858605    1.986714
1.669772    -9.887764    1.861070
2.048150    -9.890794    1.772653
2.438767    -9.923457    1.692800
2.826832    -9.932718    1.610725
1.676126    -9.922225    1.486483
2.052861    -9.930129    1.397857
2.437754    -9.941795    1.311664
2.818515    -9.923227    1.223139
1.672951    -9.903434    1.110969
2.068984    -10.024000    1.030099
1.597743    -9.678997    2.998464
1.977123    -9.679412    2.903132
2.367165    -9.702797    2.827838
2.747950    -9.674643    2.744207
1.618834    -9.786570    2.617155
2.000880    -9.795716    2.529506
2.378399    -9.780714    2.443157
2.775408    -9.813009    2.371259
1.625437    -9.808409    2.229082
1.998694    -9.796351    2.137033
2.381461    -9.808966    2.055098
2.777083    -9.844514    1.982148
1.639107    -9.890901    1.860705
2.021338    -9.914403    1.775765
2.405055    -9.917470    1.690512
2.794473    -9.934686    1.609646
1.645192    -9.924393    1.486045
2.021991    -9.934438    1.397584
2.404442    -9.937659    1.310139
2.786448    -9.926092    1.222433
1.650363    -9.955586    1.116246
2.039211    -10.035176    1.030599
2.421872    -10.025773    0.941202
1.567277    -9.679133    2.997003
1.946472    -9.680729    2.901722
2.332207    -9.688498    2.821572
2.716951    -9.678385    2.742891
1.588183    -9.787672    2.616135
1.970626    -9.800857    2.529261
2.354502    -9.813479    2.449525
2.743716    -9.815848    2.369901
1.594241    -9.806607    2.227551
1.966512    -9.791890    2.134734
2.351357    -9.816226    2.055098
2.743177    -9.839749    1.979485
1.609386    -9.899764    1.861435
1.988585    -9.908970    1.773690
2.373929    -9.921923    1.690022
2.760540    -9.930837    1.607643
1.614419    -9.927440    1.485753
1.989168    -9.928939    1.395945
2.372330    -9.938235    1.309249
2.754920    -9.930766    1.221962
1.618695    -9.953735    1.115476
2.004902    -10.023822    1.028797
2.390179    -10.029281    0.940838
1.536824    -9.679174    2.995541
1.917322    -9.689479    2.902568
2.306252    -9.711522    2.826203
2.685183    -9.679237    2.740785
1.557843    -9.790590    2.615625
1.939796    -9.803053    2.528280
2.321026    -9.806472    2.445987
2.712811    -9.821404    2.369221
1.561536    -9.795070    2.223832
1.936272    -9.796918    2.134525
2.319427    -9.815765    2.053502
2.704111    -9.815938    1.973016
1.580245    -9.912423    1.862895
1.956267    -9.905361    1.771962
2.342118    -9.923399    1.689042
2.727181    -9.928779    1.605947
1.584110    -9.933324    1.485899
1.959464    -9.938883    1.396491
2.341829    -9.945466    1.309249
2.718664    -9.918102    1.219371
1.582828    -9.925282    1.111738
1.972026    -10.019188    1.027695
2.354385    -10.015239    0.938839
1.506239    -9.678173    2.993787
1.886669    -9.690607    2.901158
2.270082    -9.691384    2.818303
2.658280    -9.697664    2.743680
1.527352    -9.792456    2.614860
1.909526    -9.808007    2.528035
2.290709    -9.812600    2.445752
2.682666    -9.829680    2.369221
1.530574    -9.794030    2.222519
1.907886    -9.811452    2.136406
2.283741    -9.798976    2.048515
2.675273    -9.828924    1.973968
1.548764    -9.910424    1.861618
1.920796    -9.885211    1.767295
2.310097    -9.923812    1.687898
2.694379    -9.928518    1.604560
1.553016    -9.934227    1.485314
1.928962    -9.944847    1.396491
2.306370    -9.931348    1.306453
2.686406    -9.919686    1.218547
1.549453    -9.911434    1.109649
1.936928    -10.002724    1.025392
2.325896    -10.032117    0.939748
1.476396    -9.681804    2.993495
1.854584    -9.684099    2.897493
2.240772    -9.700178    2.818848
2.627507    -9.702049    2.742627
1.497594    -9.799008    2.615370
1.877238    -9.802394    2.525091
2.257105    -9.804429    2.441978
2.650975    -9.832222    2.367862
1.501405    -9.804467    2.223832
1.877041    -9.813417    2.135570
2.252132    -9.799251    2.047118
2.644850    -9.836138    1.973777
1.518054    -9.913185    1.861253
1.895083    -9.915243    1.771616
2.278315    -9.925083    1.686917
2.662115    -9.930057    1.603482
1.521333    -9.931122    1.484145
1.893245    -9.923472    1.392668
2.273676    -9.928709    1.305182
2.655191    -9.925003    1.218194
1.515426    -9.892562    1.107011
1.904928    -10.001777    1.024691
2.293997    -10.034351    0.939293
1.444708    -9.673046    2.989403
1.825930    -9.695401    2.899185
2.207583    -9.691996    2.814489
2.595236    -9.700745    2.739995
1.465806    -9.792081    2.612308
1.845541    -9.799532    2.522884
2.226154    -9.807517    2.441034
2.619545    -9.835603    2.366730
1.470884    -9.806132    2.223175
1.845298    -9.810480    2.133689
2.222274    -9.807070    2.047318
2.610377    -9.828075    1.970543
1.486029    -9.907101    1.859246
1.864472    -9.920042    1.771443
2.246766    -9.927215    1.686100
2.628855    -9.927670    1.601787
1.489977    -9.929873    1.483268
1.861512    -9.922418    1.391712
2.243423    -9.936605    1.305309
2.624475    -9.932142    1.218076
1.493033    -9.950243    1.112948
1.874234    -10.007575    1.024691
2.261450    -10.033570    0.938566
1.414056    -9.670809    2.987357
1.796002    -9.700014    2.898903
2.176784    -9.694030    2.813127
2.560533    -9.690007    2.734730
1.433935    -9.784095    2.608992
1.813350    -9.793709    2.519940
2.195418    -9.811456    2.440327
2.587375    -9.836058    2.364918
1.440509    -9.808668    2.222738
1.813591    -9.807440    2.131808
2.189612    -9.802367    2.044924
2.576974    -9.823692    1.968070
1.455771    -9.912586    1.859428
1.831703    -9.913124    1.769196
2.213077    -9.919618    1.683648
2.596135    -9.927086    1.600400
1.458355    -9.926568    1.482099
1.829445    -9.919315    1.390483
2.214651    -9.951187    1.306326
2.593740    -9.939186    1.217958
1.460332    -9.940026    1.111299
1.843162    -10.011320    1.024491
2.229361    -10.034628    0.938021
1.383703    -9.670369    2.985895
1.766062    -9.704534    2.898621
2.146201    -9.696904    2.812037
2.528843    -9.690349    2.732625
1.403087    -9.782706    2.607461
1.779476    -9.778243    2.514544
2.164261    -9.813400    2.439147
2.551553    -9.822266    2.359709
1.409299    -9.805315    2.220988
1.781920    -9.804298    2.129926
2.162689    -9.823392    2.047916
2.545100    -9.824900    1.966738
1.425772    -9.919925    1.859976
1.801633    -9.920636    1.769542
2.181786    -9.922507    1.682995
2.562950    -9.924480    1.598704
1.428035    -9.931974    1.482246
1.796708    -9.912209    1.388707
2.178373    -9.931775    1.302894
1.978677    -7.678612    0.940197
1.429122    -9.939540    1.110749
1.814919    -10.030635    1.025893
1.352570    -9.664150    2.982680
1.735943    -9.708018    2.898057
2.114596    -9.694983    2.809585
2.495972    -9.685918    2.729202
1.373874    -9.792709    2.608992
1.751004    -9.792245    2.516752
2.132079    -9.810497    2.436788
2.514873    -9.804574    2.353594
1.379890    -9.814423    2.222082
1.750285    -9.801055    2.128045
2.129632    -9.816574    2.045123
2.515919    -9.836466    1.967499
1.396974    -9.935937    1.862165
1.769631    -9.917389    1.767986
2.149872    -9.922404    1.681851
2.530781    -9.925595    1.597626
1.396592    -9.929452    1.481223
1.765942    -9.915725    1.388434
2.148312    -9.940350    1.303148
1.955600    -7.686572    0.940432
1.396960    -9.932067    1.109430
1.783615    -10.033217    1.025593
1.323173    -9.670150    2.983264
1.704989    -9.706683    2.896084
2.085449    -9.704246    2.810402
2.461011    -9.672961    2.723412
1.342378    -9.786341    2.606186
1.720451    -9.794707    2.516016
2.100547    -9.810341    2.435137
2.478325    -9.786750    2.347479
1.347647    -9.803144    2.218581
1.719701    -9.803490    2.127418
2.097662    -9.814438    2.043328
2.477076    -9.809871    1.960650
1.366083    -9.937253    1.861618
1.738007    -9.915981    1.766776
2.117978    -9.922199    1.680707
2.496700    -9.918940    1.595314
1.366931    -9.939569    1.482099
1.735854    -9.923047    1.388707
2.110575    -9.912939    1.298700
1.932250    -7.693499    0.940550
1.363639    -9.915627    1.107121
1.751798    -10.032761    1.024992
1.292739    -9.668476    2.981510
1.671777    -9.692013    2.890163
2.055667    -9.710599    2.810402
2.431088    -9.679530    2.723148
1.312219    -9.789455    2.605931
1.690723    -9.801849    2.516506
2.068233    -9.806279    2.432543
2.440494    -9.763124    2.340005
1.318994    -9.817870    2.220988
1.689118    -9.805828    2.126791
2.066129    -9.814115    2.041931
2.445544    -9.811709    1.959509
1.334673    -9.934576    1.860341
1.707409    -9.920296    1.766603
2.087731    -9.929616    1.680870
2.463637    -9.916005    1.593619
1.336035    -9.940776    1.481661
1.704731    -9.924421    1.388161
2.078932    -9.913543    1.297937
2.461780    -9.930748    1.213131
1.332814    -9.916809    1.106791
1.720001    -10.032204    1.024391
1.261956    -9.663862    2.978880
1.641233    -9.692367    2.888753
2.023509    -9.705556    2.807133
2.399524    -9.679452    2.721042
1.280673    -9.781930    2.602869
1.658701    -9.795520    2.513563
2.038138    -9.812579    2.432543
2.422195    -9.817849    2.351329
1.288359    -9.818000    2.220113
1.659026    -9.810964    2.126791
2.032430    -9.803137    2.038340
2.414492    -9.815353    1.958748
1.303676    -9.934725    1.859611
1.677130    -9.926459    1.766776
2.056057    -9.930179    1.679889
2.433909    -9.926396    1.594081
1.305145    -9.941885    1.481223
1.671969    -9.915928    1.386249
2.047505    -9.915018    1.297302
2.429177    -9.929573    1.212071
1.302643    -9.922823    1.107011
1.686407    -10.020754    1.022689
1.233632    -9.678123    2.982095
1.610861    -9.693571    2.887625
1.989853    -9.692869    2.801684
2.368441    -9.681145    2.719463
1.251147    -9.789650    2.603890
1.626734    -9.789087    2.510620
2.007635    -9.816881    2.432071
2.390911    -9.820502    2.350197
1.257612    -9.817068    2.219019
1.628278    -9.812149    2.125955
2.000973    -9.802605    2.036944
2.381820    -9.812219    1.956655
1.272441    -9.932826    1.858516
1.646669    -9.931557    1.766776
2.025385    -9.935473    1.679726
2.401120    -9.924212    1.592540
1.273632    -9.937992    1.480054
1.641055    -9.918079    1.385839
2.017274    -9.922225    1.297429
2.397770    -9.933118    1.211600
1.272320    -9.927759    1.107121
1.655656    -10.025880    1.022689
1.202636    -9.671423    2.978880
1.580033    -9.691839    2.885652
1.957819    -9.687610    2.798415
2.337596    -9.683677    2.718147
1.223021    -9.808793    2.607972
1.596537    -9.793075    2.510375
1.976549    -9.818230    2.430892
2.359405    -9.822108    2.348838
1.227245    -9.818944    2.218581
1.597539    -9.813238    2.125119
1.969345    -9.801013    2.035348
2.349191    -9.808979    1.954563
1.239523    -9.917171    1.854866
1.611922    -9.910313    1.762109
1.993923    -9.936804    1.678909
2.369285    -9.925766    1.591616
1.241541    -9.929092    1.478154
1.610301    -9.921111    1.385566
1.990521    -9.946847    1.299844
2.362913    -9.922072    1.209363
1.240993    -9.924711    1.106351
1.622025    -10.013234    1.020886
1.174110    -9.684561    2.981803
1.549534    -9.691903    2.884242
1.927901    -9.692628    2.798143
2.308323    -9.692680    2.718673
1.192689    -9.810580    2.607461
1.566179    -9.796012    2.509884
1.946040    -9.822342    2.430420
2.321849    -9.798024    2.341364
1.197116    -9.822662    2.218581
1.565883    -9.808436    2.123029
1.939266    -9.807008    2.035348
2.317957    -9.811362    1.953611
1.209210    -9.921903    1.855049
1.581200    -9.913267    1.761763
1.962664    -9.939002    1.678255
2.339049    -9.933950    1.591770
1.209277    -9.918124    1.475962
1.579545    -9.924048    1.385293
1.959037    -9.948041    1.299208
2.335868    -9.943776    1.211129
1.208854    -9.914659    1.104812
1.591454    -10.019146    1.020986
1.143271    -9.678620    2.978880
1.518753    -9.689977    2.882268
1.898525    -9.700386    2.798688
2.276369    -9.690325    2.716041
1.160538    -9.796909    2.602869
1.537169    -9.807475    2.511601
1.906413    -9.779621    2.418390
2.290448    -9.799410    2.340005
1.166974    -9.826289    2.218581
1.535784    -9.813194    2.123029
1.908608    -9.810026    2.034749
2.286286    -9.811735    1.952280
1.176446    -9.906039    1.851399
1.551235    -9.920991    1.762282
1.929904    -9.933356    1.676294
2.308561    -9.941079    1.591770
1.179893    -9.930629    1.477277
1.548327    -9.923954    1.384610
1.928508    -9.954005    1.299208
2.304229    -9.946058    1.210540
1.176555    -9.902529    1.103053
1.561473    -10.028897    1.021487
1.112588    -9.673532    2.976249
1.491785    -9.712609    2.887625
1.868392    -9.704274    2.798143
2.245105    -9.690683    2.714198
1.127927    -9.778331    2.597002
1.505012    -9.798730    2.508167
1.880061    -9.804512    2.423108
2.257091    -9.792154    2.336608
1.136934    -9.830792    2.218800
1.504781    -9.812060    2.121774
1.878687    -9.816798    2.034948
2.255074    -9.813919    1.951328
1.146501    -9.913509    1.852129
1.521686    -9.931545    1.763319
1.898309    -9.933416    1.675314
2.276728    -9.942337    1.590845
1.149876    -9.938133    1.477862
1.517425    -9.925720    1.384201
1.894804    -9.943310    1.297048
2.275916    -9.962762    1.211718
1.147197    -9.914978    1.104042
1.529647    -10.026754    1.020786
1.082480    -9.673098    2.975080
1.460695    -9.708601    2.885088
1.840222    -9.718470    2.800595
2.214289    -9.692823    2.712882
1.097815    -9.780784    2.596747
1.474366    -9.799466    2.507186
1.848712    -9.803549    2.421457
2.225744    -9.793334    2.335249
1.105677    -9.824537    2.216612
1.474671    -9.816630    2.121774
1.848560    -9.822515    2.034948
2.223870    -9.816004    1.950377
1.115311    -9.910141    1.850852
1.489893    -9.927400    1.761763
1.866185    -9.930466    1.673843
2.245344    -9.945419    1.590229
1.119159    -9.939648    1.477569
1.486819    -9.929348    1.384064
1.861366    -9.933477    1.295014
2.238358    -9.938696    1.207950
1.118997    -9.938205    1.106241
1.498731    -10.030417    1.020686
1.051039    -9.660211    2.970111
1.427826    -9.692155    2.878885
1.809341    -9.718394    2.798960
2.183270    -9.693925    2.711303
1.066858    -9.775456    2.594451
1.443588    -9.799148    2.505960
1.817563    -9.803442    2.420041
2.195475    -9.799166    2.335022
1.075212    -9.824973    2.215956
1.443266    -9.812400    2.119893
1.817169    -9.821396    2.033552
2.192889    -9.818948    1.949616
1.084046    -9.905696    1.849392
1.458427    -9.925102    1.760553
1.834097    -9.927415    1.672372
2.210314    -9.932007    1.586992
1.087583    -9.933200    1.476108
1.456062    -9.931903    1.383791
1.829085    -9.929387    1.293743
2.204628    -9.930976    1.206184
1.086446    -9.922819    1.104152
1.022403    -9.672900    2.973034
1.396578    -9.686044    2.875784
1.776226    -9.705917    2.793784
2.151429    -9.691158    2.708670
1.037372    -9.783491    2.595726
1.412965    -9.799693    2.504979
1.786433    -9.803235    2.418626
2.164351    -9.801100    2.333890
1.044858    -9.826285    2.215518
1.412041    -9.809038    2.118221
1.785977    -9.821140    2.032355
2.162754    -9.825629    1.949616
1.051468    -9.888443    1.845560
1.427129    -9.923681    1.759516
1.801869    -9.923287    1.670737
2.176658    -9.924265    1.584681
1.057103    -9.936490    1.476108
1.425303    -9.934362    1.383518
1.795786    -9.919335    1.291709
2.173088    -9.932842    1.205595
1.053580    -9.903373    1.101624
0.991258    -9.661722    2.968649
1.364711    -9.675082    2.871273
1.744737    -9.701850    2.791059
2.120862    -9.693944    2.707618
1.004976    -9.763543    2.589604
1.382487    -9.801101    2.504243
1.757719    -9.816322    2.420513
2.133857    -9.805791    2.333437
1.014506    -9.827503    2.215081
1.379758    -9.797830    2.114877
1.753424    -9.813068    2.029562
2.129894    -9.819746    1.947143
1.020116    -9.881842    1.843735
1.396540    -9.927037    1.759343
1.769510    -9.918086    1.668940
2.143487    -9.918341    1.582677
1.025190    -9.925910    1.474062
1.393992    -9.932802    1.382699
1.764304    -9.918939    1.290947
2.143023    -9.941403    1.205830
1.024009    -9.914468    1.102503
0.960949    -9.658056    2.966603
1.334367    -9.674471    2.869863
1.715801    -9.711895    2.792422
2.087858    -9.685316    2.703406
0.977322    -9.789672    2.595726
1.353073    -9.810099    2.505469
1.727090    -9.818798    2.419806
2.104784    -9.817054    2.334569
0.982115    -9.808238    2.210049
1.349559    -9.801049    2.114668
1.723141    -9.817436    2.029362
2.099347    -9.824314    1.946763
0.990872    -9.895688    1.845743
1.366346    -9.933227    1.759689
1.739584    -9.926383    1.669430
2.112842    -9.923905    1.582523
0.994240    -9.924087    1.473331
1.362569    -9.930162    1.381743
1.730450    -9.904762    1.288405
2.110657    -9.939189    1.204771
0.925121    -9.234173    1.026533
0.929019    -9.637161    2.959295
1.303911    -9.672814    2.868171
1.685997    -9.717113    2.792422
2.055730    -9.680352    2.700247
0.943467    -9.753165    2.585267
1.322452    -9.810361    2.504488
1.697123    -9.825007    2.420041
2.073448    -9.817746    2.333211
0.951454    -9.805378    2.208736
1.320788    -9.814835    2.116758
1.693512    -9.825574    2.029961
2.065355    -9.812455    1.943148
0.960697    -9.900638    1.846107
1.335865    -9.937372    1.759689
1.708955    -9.930700    1.669267
2.082183    -9.929373    1.582369
0.962068    -9.909367    1.470701
1.332888    -9.940187    1.382562
1.698545    -9.901226    1.287261
2.079544    -9.942701    1.204417
0.894866    -9.217182    1.024334
0.900870    -9.655201    2.963972
1.274103    -9.675818    2.867890
1.655693    -9.719395    2.791605
2.024046    -9.677170    2.697615
0.911376    -9.732908    2.579144
1.291335    -9.806683    2.502526
1.664860    -9.817713    2.416975
2.039748    -9.806897    2.329134
0.921276    -9.807279    2.208518
1.291562    -9.825628    2.118221
1.663197    -9.829757    2.029761
2.035640    -9.820668    1.943528
0.930042    -9.900603    1.845560
1.305115    -9.939470    1.759343
1.678480    -9.935897    1.669267
2.052910    -9.941520    1.583294
0.930088    -9.895529    1.468217
1.301613    -9.938336    1.381743
1.669973    -9.917151    1.288659
2.048430    -9.946117    1.204064
0.866212    -9.215925    1.023894
0.829228    -9.192168    2.821035
1.244535    -9.680633    2.868171
1.623486    -9.710193    2.787518
1.992596    -9.674830    2.695245
0.879070    -9.708696    2.572001
1.261119    -9.809637    2.502281
1.633296    -9.814146    2.414852
2.008479    -9.807383    2.327775
0.890742    -9.805201    2.207424
1.260914    -9.825664    2.117385
1.628537    -9.807747    2.024175
1.998237    -9.791277    1.936489
0.899485    -9.901451    1.845195
1.272110    -9.923889    1.755886
1.645569    -9.926401    1.666815
2.022793    -9.949708    1.583602
0.899098    -9.891439    1.467194
1.270112    -9.934421    1.380650
1.641642    -9.934949    1.290311
2.015143    -9.938729    1.202416
0.837664    -9.215570    1.023564
0.800276    -9.186094    2.818404
1.213874    -9.676790    2.865916
1.591508    -9.701836    2.783704
1.964438    -9.688461    2.697351
0.804887    -9.203721    2.437559
1.231138    -9.814421    2.502526
1.602240    -9.813357    2.413437
1.978381    -9.813498    2.327775
0.810415    -9.235356    2.078566
1.230277    -9.825605    2.116549
1.596707    -9.802058    2.021981
1.967415    -9.793511    1.935728
0.846758    -9.649508    1.797751
1.240069    -9.915039    1.753639
1.612415    -9.914849    1.664037
1.991871    -9.953930    1.583294
0.868142    -9.887252    1.466171
1.239382    -9.936305    1.380377
1.610360    -9.935043    1.289676
1.980949    -9.926362    1.200179
0.818689    -9.324041    1.035328
0.771369    -9.179929    2.815773
1.183015    -9.670945    2.863097
1.560666    -9.700023    2.781797
1.936404    -9.702957    2.699720
0.775915    -9.197476    2.435263
1.200905    -9.817190    2.502281
1.570435    -9.807671    2.410843
1.947695    -9.816656    2.327096
0.782489    -9.242659    2.079660
1.199178    -9.821567    2.114877
1.567245    -9.810782    2.022779
1.935837    -9.791796    1.934207
0.779742    -9.210212    1.715455
1.210479    -9.925641    1.754849
1.580125    -9.908058    1.662076
1.960369    -9.955147    1.582523
0.783108    -9.244214    1.370452
1.207816    -9.931210    1.379148
1.579250    -9.936018    1.289168
1.948190    -9.920699    1.198766
0.742585    -9.174627    2.813435
1.155270    -9.690725    2.867890
1.530299    -9.700963    2.780707
1.905883    -9.705066    2.698668
0.749261    -9.219088    2.440365
1.169403    -9.809277    2.499337
1.539585    -9.807643    2.409663
1.919062    -9.830233    2.328907
0.754050    -9.244044    2.079441
1.168232    -9.818403    2.113414
1.533500    -9.792309    2.017991
1.905037    -9.793835    1.933446
0.752122    -9.220401    1.716915
1.177697    -9.909747    1.751392
1.549110    -9.908960    1.661422
1.922488    -9.923283    1.576513
0.754663    -9.245586    1.370306
1.176409    -9.926999    1.378055
1.547843    -9.934936    1.288405
1.918310    -9.929554    1.199119
0.715919    -9.195930    2.819281
1.121661    -9.660867    2.858022
1.499060    -9.696105    2.777983
1.875734    -9.708973    2.698141
0.721200    -9.224235    2.441131
1.138856    -9.808966    2.498356
1.510079    -9.816162    2.410607
1.887976    -9.831292    2.327775
0.726526    -9.257015    2.081848
1.137541    -9.817084    2.112369
1.504937    -9.806653    2.019986
1.874981    -9.799633    1.933446
0.725600    -9.245210    1.721111
1.147629    -9.916249    1.751910
1.517060    -9.902939    1.659624
1.889631    -9.916517    1.574510
0.726372    -9.248845    1.370452
1.145607    -9.927609    1.377646
1.516458    -9.933756    1.287642
1.886910    -9.930515    1.198530
0.687916    -9.200945    2.820158
1.091263    -9.657590    2.856048
1.467432    -9.688290    2.774441
1.844137    -9.705204    2.695509
0.693838    -9.238939    2.444447
1.108431    -9.809524    2.497620
1.475757    -9.792881    2.403767
1.855817    -9.826509    2.325284
0.698196    -9.260173    2.082067
1.107198    -9.818584    2.111950
1.473241    -9.800565    2.017791
1.844363    -9.802444    1.932875
0.698341    -9.262098    1.723849
1.115547    -9.905041    1.749318
1.490184    -9.930962    1.663547
1.858653    -9.919354    1.574047
0.697994    -9.251030    1.370452
1.114039    -9.921232    1.376280
1.485827    -9.937380    1.287515
1.855706    -9.932353    1.198059
0.660848    -9.219228    2.825127
1.061629    -9.660892    2.856048
1.438126    -9.695602    2.775259
1.814176    -9.709868    2.695245
0.666324    -9.252597    2.447509
1.077589    -9.806133    2.495904
1.445990    -9.799286    2.404238
1.823883    -9.822581    2.323019
0.669431    -9.257406    2.080973
1.076963    -9.820962    2.111742
1.443737    -9.808916    2.018589
1.815352    -9.813849    1.934016
0.669497    -9.258314    1.722754
1.084832    -9.905479    1.748799
1.457415    -9.919870    1.660932
1.828212    -9.925010    1.574047
0.669823    -9.256087    1.370891
1.083381    -9.922634    1.376007
1.453178    -9.927170    1.285609
1.825763    -9.940930    1.198413
0.632822    -9.225028    2.826296
1.031984    -9.664104    2.856048
1.407958    -9.697112    2.774441
1.782984    -9.707797    2.693140
0.638133    -9.257492    2.448274
1.046161    -9.796861    2.492715
1.416475    -9.807523    2.405182
1.790416    -9.809924    2.318716
0.641026    -9.259416    2.080973
1.044652    -9.803800    2.107352
1.413078    -9.809420    2.017791
1.784357    -9.814543    1.933065
0.640682    -9.254439    1.721659
1.054437    -9.908761    1.748799
1.427957    -9.931130    1.662076
1.797226    -9.927655    1.573585
0.641764    -9.263033    1.371621
1.052306    -9.920001    1.375188
1.423278    -9.935509    1.286117
1.795080    -9.945506    1.198295
0.604142    -9.221201    2.824543
1.002627    -9.670087    2.856894
1.376578    -9.689955    2.771172
1.753021    -9.712272    2.692876
0.610428    -9.270019    2.451080
1.014900    -9.788453    2.489772
1.387059    -9.816634    2.406361
1.756013    -9.791403    2.313054
0.612616    -9.261339    2.080973
1.016180    -9.822523    2.110696
1.382977    -9.813709    2.017791
1.754238    -9.819971    1.933065
0.612287    -9.256361    1.721659
1.023729    -9.909010    1.748280
1.396520    -9.928626    1.660932
1.765894    -9.928258    1.572814
0.613147    -9.261997    1.371183
1.021563    -9.920226    1.374778
1.390725    -9.925094    1.284211
1.762652    -9.940211    1.197000
0.574478    -9.201058    2.817820
0.973147    -9.675027    2.857458
1.347372    -9.697944    2.772262
1.720352    -9.701457    2.688401
0.581561    -9.265092    2.449294
0.983506    -9.778017    2.486338
1.357201    -9.822768    2.406833
1.725120    -9.791948    2.311921
0.583770    -9.256358    2.079441
0.983892    -9.804187    2.106098
1.353264    -9.820818    2.018390
1.722575    -9.816604    1.931353
0.583886    -9.258196    1.721659
0.993029    -9.909165    1.747762
1.365247    -9.926999    1.659951
1.736957    -9.942389    1.574201
0.585351    -9.273708    1.372644
0.990926    -9.921342    1.374505
1.360134    -9.928332    1.284084
1.725673    -9.908397    1.192525
0.546020    -9.198959    2.816650
0.943181    -9.675103    2.856612
1.316707    -9.695359    2.770355
1.690250    -9.704787    2.687875
0.551174    -9.234016    2.440621
0.953503    -9.780988    2.486338
1.326669    -9.823997    2.406125
1.696565    -9.805832    2.313960
0.555194    -9.255183    2.078785
0.953808    -9.807160    2.106098
1.322866    -9.822981    2.017991
1.691783    -9.817973    1.930592
0.555479    -9.259944    1.721659
0.962719    -9.913145    1.747935
1.334128    -9.926253    1.659134
1.704274    -9.935011    1.572198
0.557372    -9.283360    1.373813
0.959911    -9.918420    1.373685
1.328483    -9.923610    1.282940
1.693592    -9.903856    1.191348
0.517527    -9.195817    2.815189
0.913133    -9.674130    2.855484
1.284678    -9.682184    2.765451
1.661281    -9.714683    2.689191
0.522624    -9.231803    2.439600
0.923127    -9.780006    2.485357
1.295379    -9.819350    2.404002
1.667941    -9.819633    2.315998
0.526630    -9.253920    2.078129
0.923257    -9.805171    2.105053
1.291317    -9.816307    2.015796
1.659689    -9.811501    1.928309
0.527179    -9.263567    1.722024
0.931379    -9.906246    1.746206
1.302127    -9.918560    1.657173
1.673786    -9.940193    1.572198
0.529001    -9.287002    1.374106
0.929108    -9.917372    1.373139
1.297389    -9.922722    1.282304
1.663693    -9.911943    1.191701
0.489312    -9.197360    2.815189
0.880483    -9.644400    2.845898
1.254349    -9.681309    2.764089
1.629712    -9.709268    2.686295
0.494350    -9.234329    2.439855
0.895762    -9.811756    2.492715
1.263634    -9.810748    2.400936
1.635565    -9.811253    2.312827
0.498289    -9.256467    2.078347
0.891664    -9.791402    2.101499
1.260322    -9.813419    2.014399
1.627812    -9.805894    1.926216
0.499126    -9.272014    1.723301
0.900091    -9.899248    1.744478
1.271064    -9.917616    1.656356
1.640866    -9.930659    1.569886
0.500240    -9.283641    1.373375
0.898320    -9.916230    1.372593
1.267066    -9.927639    1.282431
1.633921    -9.920920    1.192172
0.461476    -9.206460    2.817527
0.811102    -9.195955    2.712823
1.223675    -9.677474    2.761909
1.596938    -9.696135    2.681294
0.466017    -9.235802    2.439855
0.814549    -9.235035    2.345551
1.232559    -9.806865    2.399049
1.604985    -9.813341    2.312148
0.469988    -9.259901    2.078785
0.841652    -9.567114    2.052798
1.229477    -9.811406    2.013203
1.597720    -9.810841    1.926216
0.470877    -9.277430    1.724031
0.866872    -9.869583    1.738773
1.240387    -9.919511    1.656029
1.608969    -9.926868    1.568500
0.471756    -9.285133    1.373375
0.867979    -9.919926    1.372729
1.237828    -9.941322    1.283702
1.603318    -9.924906    1.192054
0.433319    -9.209743    2.818112
0.782316    -9.191709    2.710849
1.194215    -9.683093    2.762454
1.566414    -9.696228    2.679978
0.437268    -9.228495    2.437559
0.782266    -9.191124    2.333778
1.201166    -9.799991    2.396454
1.573328    -9.808603    2.309883
0.441576    -9.261299    2.078785
0.783431    -9.229584    1.979849
1.198301    -9.806378    2.011407
1.566839    -9.810850    1.925265
0.442459    -9.279813    1.724214
0.784775    -9.260767    1.631083
1.209709    -9.921311    1.655702
1.577575    -9.925903    1.567575
0.443031    -9.281595    1.372644
0.781800    -9.262158    1.281369
1.204214    -9.919472    1.280398
1.571308    -9.919970    1.190877
0.404935    -9.208163    2.817235
0.754740    -9.201715    2.713105
1.163354    -9.677158    2.759730
1.536357    -9.699082    2.679451
0.409296    -9.237521    2.439600
0.753510    -9.186717    2.332061
1.170749    -9.800734    2.395747
1.542169    -9.806648    2.308297
0.413248    -9.264560    2.079223
0.755510    -9.236817    1.980894
1.166935    -9.799305    2.009212
1.537492    -9.820460    1.926216
0.413856    -9.278179    1.723666
0.755879    -9.257240    1.630046
1.178916    -9.922037    1.655212
1.547876    -9.935577    1.568345
0.414112    -9.273028    1.371183
0.753139    -9.261551    1.280959
1.173893    -9.924105    1.280525
1.539647    -9.916894    1.189935
0.376683    -9.209362    2.817235
0.727639    -9.218334    2.717334
1.133100    -9.675904    2.758368
1.506298    -9.701843    2.678925
0.380834    -9.235835    2.438835
0.725856    -9.195751    2.333778
1.139777    -9.796558    2.393860
1.511482    -9.807482    2.307392
0.384944    -9.268709    2.079879
0.727782    -9.246891    1.982566
1.136414    -9.798945    2.008414
1.505569    -9.813486    1.923933
0.385185    -9.274494    1.722754
0.727012    -9.253624    1.629009
1.148017    -9.921687    1.654558
1.518878    -9.950047    1.569886
0.385579    -9.272278    1.370891
0.724722    -9.263818    1.280959
1.142079    -9.915835    1.279000
1.508767    -9.918625    1.189582
0.348175    -9.203785    2.815189
0.699789    -9.226264    2.719025
1.104390    -9.687938    2.760820
1.475510    -9.699742    2.677082
0.352829    -9.245655    2.441131
0.698520    -9.209534    2.336721
1.109606    -9.799043    2.393624
1.480950    -9.809184    2.306712
0.356657    -9.273747    2.080754
0.699557    -9.251031    1.982984
1.106346    -9.802385    2.008414
1.475747    -9.820000    1.924314
0.356389    -9.266789    1.721111
0.698174    -9.249919    1.627972
1.116358    -9.914378    1.652760
1.488198    -9.953683    1.569732
0.357130    -9.273418    1.370891
0.696520    -9.268961    1.281369
1.111541    -9.918306    1.278873
1.478769    -9.926154    1.189935
0.319803    -9.200987    2.814020
0.672107    -9.236979    2.721563
1.072542    -9.672155    2.755371
1.442902    -9.685140    2.671818
0.324598    -9.250560    2.442151
0.670474    -9.214535    2.337457
1.079219    -9.799503    2.392916
1.449139    -9.802119    2.303994
0.328272    -9.276747    2.081191
0.671313    -9.255084    1.983403
1.075092    -9.795019    2.006220
1.445041    -9.820597    1.923553
0.327644    -9.258996    1.719469
0.669721    -9.251034    1.627799
1.084969    -9.908930    1.651289
1.455221    -9.941582    1.567113
0.328888    -9.280402    1.371768
0.667795    -9.267102    1.280823
1.080677    -9.917726    1.278364
1.450602    -9.946366    1.191819
0.291573    -9.201924    2.814020
0.643431    -9.234211    2.720153
1.043172    -9.678270    2.756188
1.414573    -9.699066    2.674450
0.296030    -9.245714    2.440621
0.642942    -9.227187    2.340155
1.049046    -9.801802    2.392681
1.419618    -9.810374    2.304900
0.299747    -9.275760    2.080754
0.643051    -9.259051    1.983820
1.045556    -9.803143    2.007217
1.415884    -9.831786    1.924885
0.299141    -9.257010    1.718922
0.640927    -9.247150    1.626762
1.053625    -9.903383    1.649819
1.421211    -9.921548    1.563260
0.300543    -9.285322    1.372352
0.639361    -9.269107    1.280823
1.050767    -9.925926    1.279000
1.419940    -9.949787    1.191701
0.263341    -9.202776    2.814020
0.615226    -9.238057    2.720717
1.013174    -9.678554    2.755371
1.383447    -9.693810    2.671818
0.267495    -9.240779    2.439090
0.615983    -9.249430    2.345306
1.019070    -9.805941    2.392916
1.390469    -9.821434    2.306486
0.271146    -9.271759    2.079660
0.614318    -9.256101    1.982775
1.013961    -9.791684    2.004225
