-7.229195    13.470498    1.691025
-7.867058    13.465520    1.569531
-8.476507    13.362476    1.444018
-11.963922    17.432983    1.729018
-7.717475    14.395404    1.204912
-8.200222    14.040276    1.043479
-11.491163    18.128805    1.173717
-11.937277    17.413694    0.954280
-10.228158    19.092983    0.805216
-10.665612    18.283447    0.583852
-11.497244    18.155212    0.388232
-7.042487    13.157851    0.010158
-6.957825    11.933143    -0.123924
-9.028953    13.229362    1.899115
-7.355134    13.806661    1.730385
-7.827707    13.493035    1.569932
-8.440249    13.396001    1.444836
-11.903645    17.459724    1.728040
-7.579103    14.242055    1.190124
-8.147096    14.048103    1.042198
-11.491349    18.252699    1.179450
-11.856243    17.409776    0.952067
-10.252109    19.279561    0.811754
-10.605461    18.309164    0.583632
-11.460122    18.220020    0.388864
-6.884106    11.890395    -0.123260
-8.281007    13.222321    1.999144
-8.972162    13.233164    1.895701
-7.170566    13.560293    1.696742
-7.790744    13.524746    1.570833
-8.342585    13.331504    1.435113
-11.813694    17.442521    1.722742
-7.515809    14.228204    1.187034
-8.054656    13.987415    1.035858
-11.345830    18.144789    1.170222
-11.780943    17.413798    0.950306
-10.300201    19.514188    0.820298
-6.819187    11.862045    -0.122748
-8.250880    13.264510    2.001686
-11.748002    17.442255    2.493494
-7.251802    13.816328    1.725987
-7.759587    13.566721    1.572936
-10.930606    17.586933    1.889583
-11.747884    17.460491    1.720949
-7.575394    14.448159    1.203440
-8.129598    14.218248    1.051100
-11.364913    18.299962    1.177976
-11.718548    17.436595    0.949584
-10.229618    19.525338    0.819444
-6.765909    11.853383    -0.122443
-7.497116    13.191982    2.091733
-8.218487    13.303263    2.003719
-11.675107    17.449329    2.489373
-7.108810    13.645465    1.701910
-7.719403    13.593059    1.573236
-10.826381    17.539032    1.880859
-11.684292    17.481535    1.719482
-7.533333    14.475755    1.203808
-8.070173    14.215351    1.049051
-11.651131    17.451693    0.948455
-9.426928    18.128317    0.759596
-10.368457    18.285999    0.579826
-8.180747    13.333487    2.004482
-11.588537    17.435443    2.482308
-7.174195    13.874691    1.727746
-7.682550    13.625346    1.574238
-10.840705    17.683387    1.892764
-11.590361    17.456688    1.713532
-7.485226    14.491711    1.203220
-8.049553    14.280903    1.052061
-11.229985    18.332738    1.175628
-11.576554    17.455721    0.946739
-10.281413    18.262845    0.578089
-7.308060    13.045008    2.061279
-8.170770    13.409343    2.012108
-11.526236    17.457656    2.480424
-7.217818    14.064651    1.748635
-7.665499    13.693129    1.579344
-11.537299    17.492996    1.713614
-7.452559    14.537681    1.205132
-8.010088    14.313369    1.052637
-11.117122    18.274122    1.169676
-11.525694    17.495325    0.946965
-9.327362    18.208942    0.760562
-10.212167    18.270743    0.577345
-6.167665    12.051443    0.009215
-7.226112    12.992048    2.049398
-8.198918    13.548910    2.029266
-7.171477    14.080529    1.747866
-7.648588    13.761805    1.584552
-11.508154    17.565825    1.717282
-7.382146    14.509811    1.200939
-7.978255    14.359685    1.054239
-11.020214    18.240626    1.165363
-11.504238    17.579921    0.949629
-9.279606    18.253508    0.761231
-10.180316    18.345690    0.578724
-6.091718    11.993632    0.009156
-7.186698    13.015024    2.049535
-8.301390    13.813752    2.065108
-7.195052    14.234636    1.764247
-7.605370    13.783463    1.584351
-10.546766    17.564700    1.869590
-11.485740    17.649501    1.722009
-7.330404    14.518148    1.199762
-7.939946    14.394580    1.055007
-10.991427    18.319731    1.168257
-11.492172    17.679627    0.953106
-9.248769    18.331854    0.763311
-10.153890    18.431120    0.580433
-6.052192    12.006906    0.009152
-8.313869    13.931144    2.078835
-7.021217    13.997222    1.732144
-7.569261    13.818076    1.585653
-10.580044    17.743239    1.885130
-11.505663    17.799327    1.733175
-7.283148    14.535219    1.199320
-10.287526    18.786635    1.374590
-10.880997    18.262438    1.162469
-11.507780    17.823065    0.958930
-10.267557    20.507385    0.852581
-10.254145    18.748972    0.589449
-10.887303    18.290443    0.384547
-7.975260    13.457404    2.004482
-7.296702    14.658458    1.811192
-7.533011    13.852597    1.586955
-11.484926    17.887380    1.738310
-9.051037    18.202672    1.499629
-10.247477    18.850550    1.376959
-11.516143    17.956672    0.964213
-10.285074    20.700774    0.859305
-10.276706    18.927929    0.594082
-7.742265    13.156112    1.956057
-7.312442    14.803753    1.826365
-7.508437    13.908912    1.590760
-10.359420    17.618103    1.865046
-11.534498    18.086395    1.754203
-9.082083    18.406541    1.514122
-7.746936    14.355512    1.046873
-10.786945    18.359852    1.164435
-11.477100    18.017194    0.965568
-10.242285    20.774356    0.861051
-10.278820    19.071121    0.597583
-7.893037    13.506943    2.004609
-7.026829    14.336139    1.766006
-7.469489    13.938898    1.591561
-7.863436    13.467617    1.423117
-11.504022    18.161270    1.758033
-7.189845    14.684935    1.206162
-10.266864    19.165539    1.395340
-10.740631    18.410109    1.165527
-11.458625    18.110570    0.968684
-10.169280    20.786831    0.860271
-10.256101    19.169554    0.599679
-7.485666    12.900524    1.911191
-7.227557    14.860857    1.827904
-7.422018    13.952965    1.590560
-7.823580    13.494263    1.423390
-11.463110    18.220098    1.760315
-8.454304    17.402521    1.427237
-10.220667    19.220737    1.397069
-10.690605    18.454207    1.166236
-11.491243    18.286049    0.976179
-8.434962    17.376594    0.718063
-10.232875    19.268025    0.601774
-7.522806    13.056642    1.930892
-8.434242    13.482877    1.885692
-6.946507    14.395098    1.767985
-7.368026    13.954553    1.588156
-10.121805    17.582380    1.851324
-11.419834    18.275466    1.762272
-7.091377    14.711706    1.204765
-10.271587    19.460286    1.412184
-11.444080    18.335623    0.976947
-8.379877    17.398789    0.717914
-10.286987    19.514207    0.608474
-7.450858    11.940496    0.122089
-7.599446    13.283708    1.961014
-8.465681    13.625936    1.902059
-6.884713    14.379586    1.763477
-7.321023    13.969161    1.587255
-10.031244    17.549370    1.844599
-6.918847    14.467083    1.182988
-10.258147    19.580105    1.418589
-10.401371    18.211651    1.146853
-8.319997    17.410891    0.717357
-10.236802    19.564275    0.609054
-7.455804    12.030446    0.122774
-7.654187    13.475141    1.985798
-8.373777    13.570713    1.890755
-6.746741    14.203125    1.739290
-7.291447    14.017153    1.590159
-8.280952    17.452566    1.425030
-9.492224    18.254175    1.320408
-8.130468    14.337510    0.901309
-8.233150    17.365903    0.714459
-9.440510    18.177971    0.564992
-7.404184    12.029419    0.122531
-5.731306    12.100304    0.009114
-7.604039    13.483008    1.983511
-8.258423    13.476109    1.874035
-8.208162    17.417358    2.129806
-7.253886    14.050067    1.591361
-9.902841    17.574152    1.840783
-11.258432    18.391697    1.763413
-6.623521    14.070738    1.147234
-9.438465    18.287645    1.320728
-8.083994    14.358036    0.901036
-11.157588    18.248409    0.966787
-8.168350    17.366666    0.713456
-9.416297    18.268156    0.566895
-10.247910    18.219231    0.377647
-7.358378    12.037574    0.122384
-5.696282    12.122356    0.009117
-7.434220    13.276929    1.949829
-8.177286    13.436063    1.864969
-6.452357    13.801260    1.685198
-7.041504    13.741966    1.554010
-9.860061    17.624440    1.842873
-6.598888    14.130751    1.150471
-7.300844    14.252989    1.027724
-8.055983    14.411531    0.902838
-8.104890    17.369910    0.712565
-9.329705    18.237335    0.565048
-7.312590    12.045562    0.122237
-5.656530    12.134337    0.009113
-6.095548    11.921492    -0.120120
-7.343330    13.209512    1.936611
-8.104179    13.408396    1.857669
-6.409567    13.820089    1.685088
-7.374105    14.500502    1.637223
-9.795305    17.635453    1.840873
-11.136614    18.445928    1.762027
-6.486336    14.001621    1.138332
-7.426219    14.608028    1.051677
-8.011732    14.436179    0.902838
-11.060368    18.341337    0.968097
-8.051981    17.395601    0.712602
-9.246557    18.212394    0.563393
-7.263726    12.048243    0.122037
-5.618436    12.149818    0.009112
-6.039940    11.902685    -0.119743
-7.520361    13.626238    1.994314
-8.059427    13.427235    1.856845
-6.280729    13.651872    1.662220
-7.131887    14.131335    1.593063
-9.734903    17.654085    1.839692
-6.439185    14.012393    1.137596
-7.414182    14.695784    1.056352
-7.958249    14.444075    0.901801
-10.947075    18.280050    0.963085
-7.982312    17.384803    0.711153
-9.213129    18.285310    0.564772
-7.210291    12.043017    0.121759
-5.577382    12.158818    0.009105
-6.020485    11.955097    -0.120084
-7.562405    13.802344    2.016684
-7.983113    13.393041    1.848720
-6.304015    13.813945    1.679591
-6.992256    13.960988    1.571434
-7.705726    14.076164    1.464374
-6.457798    14.167293    1.148558
-7.294896    14.570331    1.045721
-10.304455    18.838908    1.174208
-7.915684    17.380109    0.709964
-10.294289    20.588037    0.634917
-7.160023    12.042733    0.121534
-5.537982    12.171321    0.009102
-7.543248    13.868176    2.022911
-7.694636    12.999589    1.791143
-6.272671    13.857669    1.682560
-6.812556    13.707058    1.540492
-7.864600    14.471613    1.502997
-6.334186    14.009837    1.134212
-7.245277    14.582812    1.045016
-10.279962    18.931859    1.178030
-8.461930    14.328954    0.752171
-6.540076    14.477336    0.590566
-10.253738    20.665190    0.636323
-7.107282    12.037950    0.121265
-5.497736    12.181874    0.009097
-7.473803    13.841504    2.015667
-7.919402    13.473448    1.853077
-6.549286    14.587738    1.768755
-6.760349    13.707369    1.538189
-7.874541    14.596466    1.513447
-10.737844    18.288977    1.734316
-6.332798    14.122023    1.141716
-7.194766    14.593336    1.044184
-7.759590    14.395414    0.894266
-8.415403    14.350539    0.751946
-7.790914    17.388226    0.708330
-10.187640    20.691170    0.636158
-7.064754    12.050209    0.121170
-5.460336    12.198683    0.009097
-7.442080    13.884476    2.018590
-7.511108    12.869025    1.766769
-7.461902    16.757884    2.029099
-6.753252    13.799540    1.546199
-7.750268    14.472190    1.498090
-7.855523    13.474242    1.275450
-6.361986    14.304495    1.154885
-7.132858    14.580379    1.041686
-7.718216    14.424434    0.894593
-8.363797    14.363340    0.751268
-7.739966    17.417526    0.708553
-8.465429    17.327286    0.531933
-7.007124    12.036394    0.120814
-5.417205    12.202582    0.009088
-7.378483    13.867837    2.012871
-7.470098    12.889431    1.766416
-7.365484    16.678866    2.016785
-7.112033    14.646309    1.638625
-7.519321    14.145043    1.461830
-7.913017    13.669067    1.291588
-6.274603    14.225399    1.146939
-8.445137    17.397844    1.241121
-7.576503    14.264623    0.883236
-8.306190    14.365583    0.750049
-7.763870    17.616763    0.715685
-8.420079    17.369366    0.532429
-6.946143    12.016281    0.120398
-5.809799    11.991145    -0.119537
-7.381297    13.976363    2.025326
-7.434976    12.920034    1.767476
-7.357342    16.799713    2.028659
-7.064475    14.662682    1.638024
-7.140809    13.533011    1.396308
-8.099520    14.090762    1.329080
-7.661367    17.514715    1.410243
-8.371368    17.381412    1.238111
-7.639809    14.490953    0.895794
-8.246659    14.364141    0.748649
-7.660562    17.527871    0.711116
-8.352452    17.365390    0.531519
-6.885351    11.995906    0.119981
-5.786847    12.037753    -0.119824
-7.310291    13.945355    2.017573
-7.385942    12.926402    1.765239
-7.302203    16.814001    2.027669
-6.680027    13.974220    1.558817
-7.071071    13.501042    1.390765
-8.064157    14.129394    1.330384
-7.618312    17.562841    1.412229
-8.314561    17.399810    1.237598
-7.612445    14.547057    0.897815
-8.191173    14.369412    0.747611
-7.612712    17.565045    0.711673
-8.298706    17.390030    0.531492
-6.317183    12.084186    0.246346
-6.850496    12.020449    0.120016
-5.749888    12.055450    -0.119824
-7.203836    13.845409    1.999906
-7.307049    12.879902    1.755819
-6.159242    14.302158    1.722469
-6.608984    13.935315    1.552208
-7.506404    14.439853    1.485094
-10.423120    18.393438    1.728855
-7.576215    17.613614    1.414436
-6.563083    13.843523    0.983213
-7.554432    14.544646    0.896231
-8.144097    14.389258    0.747340
-7.559182    17.589234    0.711710
-8.238043    17.400051    0.531023
-6.271330    12.086648    0.246002
-6.798812    12.015300    0.119756
-5.365284    12.496945    0.009257
-5.706032    12.058572    -0.119680
-7.232324    14.004929    2.019734
-7.260190    12.889281    1.754053
-7.187577    16.831982    2.024481
-6.649225    14.131983    1.571834
-7.272571    14.095535    1.447381
-7.990993    14.202930    1.332666
-7.518621    17.628518    1.413774
-6.520156    13.862690    0.983149
-7.463107    14.477227    0.890662
-8.057336    14.338409    0.743412
-7.501658    17.604070    0.711376
-8.169323    17.392669    0.530030
-6.269925    12.175165    0.247411
-6.757510    12.028256    0.119678
-5.315952    12.487584    0.009238
-5.666461    12.070589    -0.119627
-7.226428    12.921894    1.755466
-6.000840    14.173100    1.702459
-8.124208    17.405267    1.933125
-7.046824    13.761446    1.410849
-7.958075    14.246522    1.334459
-7.456733    17.633132    1.412302
-8.098366    17.356225    1.229144
-7.384091    14.432497    0.886512
-8.045432    14.420639    0.746392
-7.443725    17.617797    0.711004
-8.101570    17.386844    0.529093
-6.165653    12.063471    0.244756
-6.723498    12.054171    0.119730
-5.405940    12.807862    0.009463
-5.628558    12.086104    -0.119609
-7.314009    13.173209    1.786551
-6.067743    14.454469    1.734013
-6.544411    14.133692    1.567528
-7.040666    13.854024    1.418119
-7.911429    14.265641    1.333970
-7.395274    17.638451    1.410905
-8.026216    17.340234    1.226262
-7.315367    14.407006    0.883564
-7.995828    14.435642    0.745895
-7.382303    17.623037    0.710299
-8.035607    17.384396    0.528265
-6.656936    12.021380    0.119201
-5.386694    12.872356    0.009498
-5.581387    12.081530    -0.119393
-7.103567    14.071787    2.019861
-7.310951    13.263421    1.795735
-7.007532    16.837774    2.017335
-6.342791    13.809219    1.529377
-6.929964    13.740405    1.404306
-7.334618    17.645402    1.409654
-6.597165    14.368317    1.014659
-7.272031    14.431165    0.883673
-10.228311    18.600566    0.959472
-7.319770    17.625300    0.709481
-7.977652    17.398972    0.527962
-6.136922    12.191275    0.246580
-7.232139    17.432329    0.012846
-5.541379    12.092233    -0.119331
-7.309315    13.357222    1.805390
-6.953567    16.853682    2.016675
-6.295033    13.816843    1.528075
-6.877970    13.742009    1.402306
-7.870116    14.398748    1.341876
-7.268289    17.638314    1.407300
-6.562152    14.408470    1.016068
-7.233082    14.464125    0.884328
-10.241082    18.759876    0.966065
-7.258433    17.630118    0.708775
-7.914303    17.401528    0.527300
-6.544246    11.990902    0.118498
-7.096464    17.254671    0.012699
-5.503427    12.107356    -0.119313
-7.402926    13.627402    1.838830
-6.902956    16.877695    2.017005
-6.599662    14.604057    1.612890
-6.849068    13.789803    1.405033
-7.846343    14.460495    1.345381
-7.206599    17.642065    1.405828
-6.460399    14.301210    1.007102
-7.198881    14.506819    0.885584
-10.277247    18.964233    0.974960
-7.192982    17.624545    0.707661
-6.535249    14.487117    0.438378
-6.548393    12.086535    0.119244
-7.072186    17.346738    0.012751
-5.463379    12.117802    -0.119250
-7.097061    14.386530    2.055576
-7.467607    13.847585    1.865440
-6.826870    16.838922    2.009859
-7.799295    17.400725    1.919106
-6.853396    13.905437    1.414665
-7.801942    14.484499    1.345381
-7.144205    17.643756    1.404210
-6.343454    14.157946    0.995638
-7.289320    14.802949    0.902292
-10.225643    19.007990    0.975592
-7.125386    17.613182    0.706324
-6.499346    14.526260    0.438958
-7.061648    17.474048    0.012829
-5.421686    12.124465    -0.119151
-7.335573    13.703212    1.842951
-6.111038    15.207101    1.812842
-7.751128    17.436391    1.920408
-6.828203    13.962182    1.418300
-7.757938    14.509245    1.345462
-7.082241    17.646153    1.402665
-7.754018    17.449454    1.225430
-7.471817    15.291756    0.930685
-10.236925    19.169690    0.982275
-7.063505    17.615480    0.705543
-7.748132    17.460839    0.526914
-8.462556    17.337800    0.348547
-7.032918    17.557826    0.012874
-5.383652    12.139213    -0.119133
-5.837073    11.970457    -0.243158
-6.840945    14.084519    2.006388
-7.255754    13.654621    1.833413
-6.693262    16.804775    2.000843
-6.570934    14.904532    1.639326
-8.439606    17.392149    1.764083
-7.708715    14.524174    1.344647
-7.019591    17.646486    1.400973
-6.272560    14.233130    0.998200
-8.434597    17.397287    1.057251
-10.227191    19.293684    0.987016
-7.007952    17.633353    0.705395
-7.720296    17.543085    0.528679
-8.403658    17.351982    0.348312
-6.975697    17.570956    0.012868
-5.341151    12.143773    -0.119017
-5.799014    11.985609    -0.243104
-6.766698    14.041105    1.997237
-7.111442    13.482701    1.807392
-6.636930    16.813212    1.999414
-6.464194    14.785139    1.624005
-8.378432    17.401808    1.762448
-7.640892    14.503666    1.340572
-6.948594    17.625260    1.397589
-6.143740    14.057533    0.984558
-8.372959    17.405985    1.056214
-7.890988    14.997428    0.765988
-6.943200    17.627807    0.704318
-7.668037    17.570351    0.528789
-8.333495    17.342536    0.347608
-6.309268    11.994296    0.117561
-6.915534    17.576455    0.012857
-5.297873    12.146354    -0.118882
-5.757023    11.992527    -0.242884
-6.574261    13.749494    1.952880
-7.248752    13.845805    1.853077
-6.586041    16.835345    1.999634
-6.150858    14.186889    1.556213
-8.324575    17.426531    1.762357
-7.667483    14.663055    1.353123
-6.883963    17.619558    1.395455
-7.590311    17.513672    1.224982
-8.306617    17.404556    1.054576
-7.839853    15.011827    0.765492
-6.876005    17.615512    0.702980
-7.611714    17.588290    0.528624
-8.282401    17.372534    0.347698
-6.279845    12.027778    0.117700
-6.859034    17.591068    0.012852
-5.252247    12.143277    -0.118694
-5.711175    11.991177    -0.242501
-6.813055    14.361964    2.036892
-7.060173    13.586884    1.815516
-6.530767    16.846206    1.998534
-6.162322    14.333664    1.570232
-6.754446    14.251903    1.439202
-7.371776    14.203505    1.308622
-6.824474    17.626643    1.394352
-7.555458    17.580886    1.228056
-6.737064    14.228059    0.860849
-7.794220    15.036695    0.765537
-6.814358    17.616954    0.702200
-7.544709    17.581247    0.527714
-8.214956    17.368036    0.347102
-6.240615    12.042549    0.117657
-6.791337    17.576581    0.012826
-5.661972    11.982427    -0.241972
-6.509201    13.830857    1.958726
-7.032567    13.635840    1.819166
-6.451252    16.793791    1.989959
-5.934936    13.922320    1.523168
-6.904336    14.684414    1.480732
-7.705619    14.958799    1.376026
-6.763934    17.630737    1.393027
-7.512047    17.628771    1.229785
-6.742204    14.352593    0.867129
-7.739825    15.044547    0.764724
-6.750980    17.613515    0.701234
-7.490735    17.604311    0.527714
-8.145069    17.357857    0.346398
-6.187174    12.029626    0.117344
-6.727727    17.572120    0.012808
-5.622213    11.993404    -0.241844
-6.365190    13.633262    1.927968
-7.329149    14.318562    1.907240
-6.394041    16.798642    1.988200
-5.893357    13.943213    1.523469
-6.677815    14.316545    1.441565
-7.417418    14.508485    1.332503
-6.702370    17.631830    1.391482
-7.448218    17.628754    1.228184
-6.703622    14.384976    0.867838
-9.297230    18.208917    0.924117
-6.690169    17.616394    0.700528
-7.429308    17.609708    0.527190
-8.090933    17.380951    0.346361
-6.180244    12.107333    0.117917
-6.668110    17.577716    0.012797
-5.584127    12.007876    -0.241789
-6.495080    14.023544    1.980333
-7.245607    14.263069    1.896878
-6.325288    16.772609    1.982813
-5.876702    14.023628    1.530278
-6.598733    14.261045    1.433931
-7.350775    14.487621    1.328509
-6.641566    17.634576    1.390085
-7.391014    17.644157    1.227671
-6.655687    14.397318    0.867347
-6.623422    17.603166    0.699191
-7.361746    17.600142    0.526225
-8.030026    17.389353    0.346036
-6.118216    12.077175    0.117440
-6.613448    17.596219    0.012795
-5.544748    12.019504    -0.241680
-6.424281    13.983016    1.971818
-7.391807    14.662092    1.946920
-6.274497    16.793797    1.983033
-7.237284    17.420138    1.898478
-6.789664    14.792592    1.485276
-7.189303    14.277765    1.307237
-6.570001    17.608151    1.386406
-7.327662    17.644630    1.226134
-6.586513    14.363212    0.864071
-10.308248    20.498621    1.037092
-6.527151    17.510103    0.694696
-7.301206    17.606948    0.525756
-7.964563    17.387546    0.345512
-6.077991    12.089635    0.117379
-6.491039    17.432747    0.012662
-5.197441    12.541114    -0.121789
-5.500358    12.020093    -0.241351
-6.267414    13.752645    1.936611
-7.345457    14.682036    1.946567
-5.532580    14.947761    1.763038
-7.178501    17.429379    1.897076
-6.364204    13.978606    1.401579
-7.136109    14.281032    1.305525
-6.451983    17.455169    1.372796
-7.263237    17.642113    1.224405
-6.539522    14.376989    0.863689
-10.290364    20.620430    1.041652
-6.466130    17.510359    0.693916
-7.242213    17.617246    0.525398
-7.899187    17.385501    0.344989
-6.031497    12.089434    0.117197
-6.461750    17.518254    0.012710
-5.278642    12.848358    -0.124614
-5.457257    12.023256    -0.241077
-7.070309    14.241095    1.885221
-6.167228    16.820783    1.981713
-5.810565    14.231877    1.547101
-6.190132    13.707630    1.372499
-7.187900    14.495730    1.323130
-6.415545    17.521707    1.376474
-7.194371    17.628278    1.221907
-7.836920    17.370492    1.042072
-10.278921    20.756645    1.046935
-6.411692    17.528238    0.693841
-7.181717    17.623644    0.524929
-6.532083    14.494523    0.287223
-5.997041    12.113259    0.117249
-6.404543    17.528603    0.012703
-5.419113    12.037206    -0.241022
-7.295606    14.808785    1.957399
-6.107111    16.816268    1.978965
-5.754184    14.218278    1.543696
-6.345480    14.167355    1.416574
-6.933502    14.091143    1.284253
-6.358019    17.530995    1.375665
-7.134641    17.636391    1.220947
-7.765238    17.353439    1.039615
-10.227529    20.813187    1.048199
-6.355844    17.542189    0.693618
-7.116758    17.618715    0.524130
-6.498600    14.539140    0.287710
-5.959850    12.131601    0.117249
-6.343930    17.529363    0.012689
-5.374820    12.037342    -0.240694
-6.091003    13.698267    1.920978
-7.058244    14.438552    1.905591
-5.708684    14.231247    1.543195
-6.158464    13.863668    1.384313
-8.503805    17.417201    1.585001
-6.294765    17.524136    1.373605
-7.075671    17.646155    1.220114
-6.317815    14.235782    0.851676
-8.478445    17.388346    0.874403
-6.293219    17.537151    0.692653
-7.047437    17.602418    0.522999
-6.447886    14.545299    0.287439
-5.919974    12.144435    0.117197
-6.277974    17.514854    0.012665
-5.332602    12.041890    -0.240457
-5.927682    13.441898    1.882467
-6.990078    14.410997    1.899115
-6.928786    17.427399    1.887463
-6.327889    14.363686    1.432295
-8.446854    17.436032    1.584349
-6.231613    17.517058    1.371545
-7.010812    17.640886    1.218257
-6.274110    14.255097    0.851676
-8.423754    17.411579    0.874267
-6.235036    17.544135    0.692170
-6.987870    17.610018    0.522586
-7.694903    17.503093    0.345422
-5.880075    12.157138    0.117145
-6.221868    17.527437    0.012660
-5.289200    12.043547    -0.240164
-5.893568    13.476379    1.884755
-6.837311    14.206882    1.869443
-6.864344    17.420803    1.884459
-7.703536    17.632697    1.755905
-6.619579    13.771689    1.249532
-6.181487    17.546440    1.372354
-6.940200    17.620528    1.215375
-7.643538    17.512027    1.044857
-8.359488    17.414826    0.873138
-6.177533    17.552811    0.691761
-6.921372    17.599746    0.521648
-7.655953    17.560530    0.346090
-5.835827    12.160697    0.117006
-6.163753    17.534177    0.012651
-5.213501    11.970801    -0.238394
-6.005713    13.848387    1.934196
-6.671314    13.971500    1.835768
-5.498926    14.082066    1.521466
-6.025459    13.907882    1.383131
-6.533108    13.699273    1.241137
-6.126641    17.562497    1.372134
-6.871957    17.605481    1.212877
-7.612780    17.588543    1.048024
-8.298289    17.424157    0.872326
-6.118391    17.556582    0.691167
-6.862262    17.607858    0.521262
-7.604819    17.590360    0.346217
-5.796772    12.174932    0.116971
-6.104670    17.537895    0.012640
-6.057634    14.086348    1.964827
-6.740446    17.418982    1.879752
-6.144713    14.303283    1.420572
-8.217818    17.368890    1.571309
-6.071103    17.576497    1.371766
-6.814671    17.618105    1.212301
-7.554845    17.602641    1.047478
-8.225589    17.408888    0.870294
-6.061240    17.565825    0.690795
-6.802808    17.614841    0.520848
-7.541756    17.592473    0.345801
-5.755549    12.184522    0.116893
-6.047904    17.548032    0.012634
-5.211585    12.169841    -0.241716
-5.839704    13.695196    1.907759
-6.402567    13.623019    1.784785
-6.554104    17.093053    1.842402
-6.118365    14.363296    1.424662
-8.163644    17.392214    1.571146
-6.012632    17.581830    1.370736
-6.757373    17.630542    1.211724
-7.497286    17.617467    1.046986
-8.159844    17.407809    0.868984
-6.000859    17.565424    0.690052
-6.735873    17.602018    0.519856
-7.486574    17.612766    0.345747
-5.706683    12.177674    0.116659
-5.985319    17.540950    0.012616
-5.180086    12.199578    -0.241990
-6.327171    13.570596    1.775365
-6.623545    17.433968    1.876949
-6.047535    14.318699    1.418391
-8.098467    17.391880    1.568863
-5.952907    17.583191    1.369412
-6.700417    17.643728    1.211212
-7.435827    17.622905    1.045949
-8.101766    17.422797    0.868487
-5.932854    17.542100    0.688418
-6.680421    17.618862    0.519746
-7.418525    17.602483    0.345097
-5.670560    12.197845    0.116685
-5.909714    17.494808    0.012569
-5.152332    12.238450    -0.242446
-6.303850    13.629601    1.780546
-6.563367    17.436515    1.875046
-5.827794    13.917395    1.376861
-6.452692    13.969326    1.258335
-5.889744    17.573950    1.367278
-6.635361    17.635246    1.209227
-7.371706    17.621686    1.044529
-8.040325    17.430336    0.867630
-5.867269    17.525157    0.687043
-6.605244    17.583130    0.518091
-7.355235    17.603019    0.344663
-5.637299    12.224266    0.116772
-5.853476    17.505268    0.012564
-5.137483    12.308638    -0.243523
-6.253309    13.629923    1.778073
-6.488635    17.399700    1.868938
-5.879379    14.162388    1.399307
-6.682156    14.583449    1.311801
-5.828264    17.569218    1.365513
-6.541838    17.549855    1.201990
-7.316079    17.640529    1.044311
-7.943168    17.359540    0.862888
-5.802159    17.508927    0.685706
-6.515008    17.505879    0.515224
-7.293925    17.607952    0.344320
-5.594361    12.229682    0.116659
-5.771778    17.438652    0.012503
-6.449766    17.341684    -0.165988
-5.111548    12.352981    -0.244089
-6.232442    13.695140    1.784078
-6.435912    17.421392    1.869138
-5.833628    14.174834    1.398762
-7.911661    17.407609    1.563647
-5.767491    17.566171    1.363894
-6.473100    17.529588    1.199236
-7.252812    17.640728    1.043000
-6.556728    14.446497    0.717087
-5.735334    17.486765    0.684145
-6.461962    17.527660    0.515279
-7.229615    17.605274    0.343833
-5.549377    12.230397    0.116503
-5.723853    17.473384    0.012516
-6.460488    17.534975    -0.167648
-5.097151    12.425957    -0.245221
-7.076139    15.676470    2.039350
-6.372860    17.414894    1.866334
-5.773937    14.153014    1.394855
-6.274696    13.919090    1.248554
-5.710798    17.575247    1.363232
-6.414490    17.536242    1.198339
-7.187728    17.636081    1.041417
-7.821330    17.374247    0.861218
-5.696468    17.549902    0.685929
-6.404729    17.538013    0.515003
-7.171422    17.617185    0.343634
-5.511008    12.245540    0.116486
-5.670219    17.490861    0.012516
-6.397062    17.528410    -0.167396
-5.123782    12.600841    -0.248361
-6.700957    14.967581    1.944447
-6.323810    17.446523    1.867636
-5.683075    14.053412    1.383313
-7.792090    17.427620    1.561121
-5.648609    17.567051    1.361246
-6.335844    17.487347    1.193664
-7.123488    17.633053    1.039943
-7.763510    17.388126    0.860721
-5.640765    17.561587    0.685706
-6.346472    17.545359    0.514645
-7.109483    17.619632    0.343255
-5.445698    12.200298    0.115896
-5.616531    17.508174    0.012516
-6.334077    17.522563    -0.167154
-5.006608    12.421759    -0.244527
-6.133131    13.812730    1.791967
-6.261177    17.440558    1.864932
-5.607327    13.989437    1.375316
-6.252199    14.099462    1.261269
-5.588337    17.564340    1.359701
-6.284186    17.512337    1.194048
-7.056737    17.623308    1.038086
-5.562343    17.501668    0.682697
-6.287894    17.551574    0.514259
-7.043513    17.611654    0.342676
-5.560975    17.519604    0.012512
-6.275570    17.528734    -0.167029
-6.101131    13.855111    1.795028
-6.206974    17.457810    1.864732
-5.584236    14.056551    1.380223
-6.166784    14.022781    1.252711
-5.529334    17.565229    1.358450
-6.233772    17.540938    1.194688
-6.987167    17.605894    1.035793
-7.689609    17.510438    0.864424
-5.513719    17.534857    0.683328
-6.223655    17.541578    0.513404
-6.976921    17.601577    0.342062
-5.424198    12.355259    0.117049
-5.506001    17.532768    0.012509
-6.215748    17.530939    -0.166867
-6.183781    14.160431    1.832118
-6.153055    17.475832    1.864632
-5.546193    14.086590    1.381496
-6.090267    13.964894    1.245865
-5.471563    17.569733    1.357494
-6.171313    17.535505    1.193023
-6.922887    17.601229    1.034264
-7.624284    17.507385    0.863114
-5.447726    17.512568    0.681805
-6.162851    17.540784    0.512825
-6.913017    17.597773    0.341575
-5.423389    12.457108    0.117856
-5.448922    17.539071    0.012501
-6.156965    17.535774    -0.166733
-6.140308    14.179335    1.832118
-6.059777    17.380947    1.852515
-5.497882    14.090551    1.380223
-7.591486    17.553947    1.563973
-5.413818    17.574047    1.356537
-6.117158    17.553414    1.192959
-6.860514    17.600989    1.033008
-7.597865    17.593975    0.866230
-5.394561    17.531108    0.681879
-6.104081    17.545446    0.512411
-6.852829    17.603060    0.341268
-5.402585    12.514083    0.118238
-5.385393    17.524163    0.012479
-6.093943    17.528135    -0.166481
-6.094819    14.193545    1.831529
-6.018437    17.434254    1.856220
-5.445289    14.083202    1.377861
-7.538774    17.579902    1.564218
-5.309588    17.425534    1.343810
-6.055789    17.550401    1.191486
-6.800367    17.606120    1.032080
-7.541885    17.612611    0.866004
-5.324457    17.494040    0.679799
-6.046316    17.552749    0.512080
-6.794833    17.613741    0.341069
-5.374792    12.555419    0.118472
-5.264425    17.319588    0.012322
-6.024841    17.502310    -0.166060
-6.091703    14.307198    1.843775
-5.969104    17.464877    1.857522
-5.399563    14.093331    1.377225
-7.481294    17.594693    1.563484
-5.242002    17.394952    1.340205
-6.000304    17.564175    1.191166
-6.742394    17.616642    1.031480
-7.484301    17.627390    0.865598
-5.265576    17.493069    0.679130
-5.986307    17.553241    0.511556
-6.727197    17.599014    0.340382
-7.453868    17.560825    0.165486
-5.211840    17.337572    0.012323
-5.951763    17.463921    -0.165522
-6.055891    14.345032    1.846248
-5.907522    17.459545    1.855019
-6.641388    17.495072    1.707649
-7.423795    17.609298    1.562751
-5.154432    17.296262    1.331377
-5.937118    17.555086    1.189309
-6.682650    17.622305    1.030606
-7.417782    17.620806    0.864153
-5.181377    17.406659    0.675155
-5.924112    17.546900    0.510840
-6.668923    17.608350    0.340166
-7.396854    17.576237    0.165417
-5.155490    17.342936    0.012316
-5.908705    17.513366    -0.165818
-6.373791    15.228288    1.957399
-5.848873    17.462491    1.853417
-6.556481    17.432408    1.699561
-7.353977    17.594289    1.559409
-5.874361    17.546723    1.187516
-6.612751    17.600662    1.028149
-7.357146    17.627808    0.863385
-5.125693    17.414804    0.674858
-5.864548    17.547927    0.510343
-6.605737    17.604389    0.339696
-7.338275    17.587774    0.165312
-5.112693    17.394170    0.012341
-5.835308    17.472606    -0.165261
-6.439317    15.518349    1.992134
-5.803099    17.503964    1.855920
-6.509575    17.470172    1.701288
-5.683388    13.715536    1.214078
-5.817362    17.555189    1.186875
-6.530509    17.545068    1.023726
-7.290045    17.618911    0.861850
-5.063306    17.399742    0.673669
-5.802208    17.540211    0.509599
-6.513374    17.521481    0.337709
-7.275109    17.588026    0.165104
-5.043956    17.356958    0.012303
-5.765041    17.440107    -0.164786
-5.729517    17.461180    1.849511
-6.455257    17.488191    1.701106
-7.233005    17.607735    1.556638
-5.008548    17.389928    1.334982
-5.759743    17.561574    1.186106
-6.472850    17.554716    1.023125
-7.232165    17.631952    0.861398
-5.006309    17.402710    0.673186
-5.741836    17.537981    0.509020
-6.459934    17.542320    0.337727
-7.215045    17.595461    0.164966
-5.005039    17.422329    0.012339
-5.712752    17.461512    -0.164822
-5.946143    14.581944    1.867206
-5.690978    17.525047    1.854418
-5.156072    14.101545    1.370136
-7.175192    17.620612    1.555823
-4.941246    17.356293    1.331230
-5.695055    17.545940    1.183865
-6.411426    17.553858    1.021924
-7.163363    17.617965    0.859637
-4.958088    17.436250    0.673892
-5.682766    17.539347    0.508551
-6.401630    17.549846    0.337492
-7.153122    17.598059    0.164783
-4.926707    17.350063    0.012277
-5.662542    17.489421    -0.164921
-5.903239    14.604721    1.867795
-5.616182    17.477062    1.847509
-6.349864    17.533090    1.701652
-7.115131    17.627754    1.554519
-4.887164    17.368492    1.331009
-5.632043    17.534826    1.181944
-6.355843    17.568750    1.021651
-7.105170    17.629668    0.859141
-4.897271    17.425404    0.672889
-5.623130    17.538613    0.508027
-6.341303    17.551537    0.337149
-7.097230    17.615285    0.164740
-4.884804    17.405535    0.012305
-5.607028    17.500999    -0.164867
-5.862097    14.631982    1.868972
-5.567662    17.510330    1.849211
-6.289991    17.535614    1.700016
-7.049540    17.620814    1.551992
-4.838931    17.401659    1.332407
-5.545576    17.449306    1.175027
-6.297872    17.576887    1.020996
-7.036227    17.614274    0.857334
-4.831486    17.396056    0.671180
-5.563251    17.536726    0.507476
-6.274962    17.536077    0.336481
-7.028690    17.600759    0.164402
-4.822562    17.388638    0.012283
-5.552705    17.516211    -0.164849
-5.920161    14.909245    1.902059
-5.485251    17.436213    1.839598
-6.238163    17.560460    1.700561
-5.482620    13.827043    1.216360
-4.779708    17.395267    1.330788
-5.509079    17.520502    1.178677
-6.237573    17.578247    1.019959
-6.967444    17.598624    0.855528
-4.780738    17.420433    0.671552
-5.499245    17.521283    0.506538
-6.216123    17.541110    0.336210
-6.961411    17.588767    0.164089
-4.761527    17.375384    0.012263
-5.493853    17.516945    -0.164696
-5.426705    17.436809    1.837895
-6.173354    17.548516    1.697562
-6.923790    17.619211    1.548080
-4.719524    17.384826    1.328875
-5.448187    17.514451    1.177140
-6.176000    17.575634    1.018703
-6.911231    17.614338    0.855257
-4.732239    17.453344    0.672258
-5.443390    17.531390    0.506345
-6.153670    17.535569    0.335740
-6.899749    17.590493    0.163907
-4.716561    17.420799    0.012285
-5.434752    17.516525    -0.164535
-5.370256    17.443866    1.836894
-6.117849    17.562670    1.697108
-6.865724    17.630154    1.547183
-4.654800    17.356840    1.325638
-5.398243    17.543484    1.177973
-6.112534    17.567151    1.017119
-6.844125    17.601941    0.853632
-4.675309    17.455231    0.671775
-5.380774    17.519341    0.505518
-6.095577    17.542087    0.335505
-6.841040    17.599461    0.163795
-4.644489    17.365631    0.012236
-5.369545    17.495834    -0.164185
-5.299904    17.405055    1.831086
-6.058743    17.566294    1.695654
-5.359074    13.887147    1.217257
-4.636003    17.501184    1.335570
-5.310108    17.447307    1.170416
-6.049828    17.560331    1.015645
-6.785062    17.609805    0.853000
-4.628636    17.495577    0.672778
-5.288066    17.407600    0.501823
-6.036200    17.544634    0.335198
-6.772276    17.582108    0.163439
-4.590424    17.376898    0.012234
-5.280989    17.397405    -0.163108
-5.772979    15.075364    1.914069
-5.242751    17.408848    1.829784
-5.991305    17.545216    1.691837
-5.309324    13.884903    1.215627
-4.541650    17.359988    1.323725
-5.217725    17.334511    1.161770
-5.986255    17.550458    1.014007
-6.731361    17.631470    0.853045
-4.545129    17.395606    0.668394
-5.207311    17.332794    0.499204
-5.977188    17.547928    0.334909
-6.704041    17.565433    0.163092
-4.529518    17.361871    0.012213
-5.217526    17.380004    -0.162794
-5.686894    14.988088    1.900764
-5.174833    17.376217    1.824678
-5.933622    17.552195    1.690747
-5.249398    13.855458    1.211633
-4.538259    17.566959    1.338439
-5.173060    17.379131    1.163691
-5.922480    17.539414    1.012314
-6.656383    17.596911    0.850381
-5.172615    17.410973    0.500996
-5.913100    17.535865    0.334331
-6.642692    17.566277    0.162910
-4.514150    17.522879    0.012317
-5.164466    17.396888    -0.162803
-5.707276    15.182076    1.923135
-5.120376    17.388195    1.824277
-5.873424    17.551429    1.688929
-6.601224    17.586178    1.536099
-4.497407    17.632016    1.342338
-5.152120    17.505013    1.171056
-5.864527    17.545190    1.011605
-6.580279    17.558318    0.847536
-4.507624    17.695282    0.678833
-5.108187    17.389356    0.499921
-5.851042    17.529264    0.333862
-6.578243    17.558482    0.162650
-4.485759    17.636468    0.012387
-5.096142    17.361798    -0.162328
-5.705727    15.320493    1.938442
-5.066171    17.400956    1.823977
-5.813913    17.552348    1.687293
-5.311577    14.283496    1.246191
-4.451084    17.676678    1.344693
-5.057682    17.380840    1.161706
-5.803772    17.542245    1.010403
-6.508995    17.531598    0.845278
-4.455995    17.719690    0.679242
-5.055928    17.408785    0.500031
-5.789394    17.523399    0.333410
-6.493377    17.495146    0.161877
-4.438935    17.679244    0.012407
-5.028361    17.327413    -0.161861
-5.011385    17.411636    1.823476
-5.757864    17.563479    1.686657
-6.471832    17.568367    1.531046
-4.413430    17.757032    1.349769
-5.748683    17.556171    1.010185
-6.457592    17.558046    0.845595
-4.402093    17.735217    0.679316
-5.002495    17.424214    0.500031
-5.728770    17.520171    0.333013
-6.444848    17.529061    0.162008
-4.401273    17.759754    0.012454
-4.981795    17.365827    -0.162077
-4.950320    17.400132    1.820672
-5.701187    17.572536    1.685839
-6.402187    17.545070    1.527297
-4.366059    17.799545    1.351976
-4.944935    17.390428    1.160296
-5.685867    17.546180    1.008601
-6.392752    17.547739    0.844150
-4.347899    17.749609    0.679353
-4.945467    17.426979    0.499673
-5.671914    17.528152    0.332832
-6.388644    17.542174    0.161947
-4.342728    17.756659    0.012443
-4.914854    17.332927    -0.161628
-4.896106    17.412364    1.820372
-5.639942    17.567188    1.683658
-6.343587    17.551507    1.526156
-4.310961    17.810919    1.351829
-4.890479    17.401675    1.160040
-5.622863    17.535016    1.006963
-6.335495    17.557872    0.843698
-4.291076    17.753151    0.678982
-4.882260    17.407420    0.498680
-5.613843    17.532139    0.332579
-6.330045    17.548524    0.161825
-4.283774    17.751429    0.012430
-4.857877    17.334445    -0.161503
-4.835471    17.401420    1.817668
-5.577277    17.556883    1.681023
-6.284671    17.556810    1.524933
-4.255139    17.819210    1.351461
-4.822647    17.364673    1.156582
-5.555149    17.508404    1.004452
-6.273530    17.554650    0.842614
-4.235430    17.761373    0.678796
-4.826429    17.413646    0.498432
-5.553385    17.528310    0.332182
-6.265412    17.537727    0.161548
-4.218639    17.719740    0.012399
-4.806541    17.356011    -0.161565
-4.773367    17.384511    1.814364
-5.516818    17.553010    1.679023
-6.231444    17.577887    1.525096
-4.194734    17.807913    1.349622
-5.492735    17.497737    1.002868
-6.212311    17.553096    0.841621
-4.177716    17.760664    0.678276
-4.777207    17.443797    0.498873
-5.495097    17.530955    0.331911
-6.203239    17.533300    0.161331
-4.158540    17.708261    0.012382
-4.756438    17.382251    -0.161673
-4.717144    17.388511    1.813262
-5.454070    17.541324    1.676297
-6.171874    17.580935    1.523710
-4.134890    17.798356    1.347930
-4.707391    17.362152    1.154468
-5.439915    17.517366    1.003032
-6.151491    17.552276    0.840673
-4.119594    17.757822    0.677681
-4.707742    17.399512    0.497191
-5.437733    17.536271    0.331694
-6.145782    17.541868    0.161236
-4.098552    17.696580    0.012365
-4.696042    17.370697    -0.161431
-2.781258    12.031740    -0.444185
-4.666093    17.411551    1.814163
-5.391445    17.529419    1.673571
-6.112672    17.584726    1.522406
-4.078707    17.804152    1.347415
-4.648681    17.356271    1.153124
-5.377645    17.506294    1.001449
-6.095648    17.565401    0.840402
-4.061752    17.755766    0.677124
-4.655887    17.419668    0.497356
-5.368075    17.501254    0.330719
-6.088658    17.551192    0.161149
-4.049138    17.730520    0.012379
-4.652531    17.421735    -0.161772
-2.720124    11.934010    -0.440267
-4.606542    17.402699    1.811760
-5.312715    17.463941    1.665756
-6.053504    17.588317    1.521102
-4.022308    17.808800    1.346826
-4.622465    17.472714    1.159912
-5.296044    17.430993    0.996207
-6.036535    17.568904    0.839679
-4.002862    17.748647    0.676381
-4.600892    17.428070    0.497191
-5.255434    17.323414    0.327052
-6.026662    17.546146    0.160932
-3.993844    17.738955    0.012377
-4.573301    17.338271    -0.160866
-2.694234    11.990076    -0.442028
-4.559925    17.442742    1.814464
-5.245913    17.436291    1.661575
-5.993086    17.587939    1.519472
-3.960717    17.789906    1.344472
-5.212371    17.346750    0.990474
-5.979067    17.576938    0.839183
-3.945572    17.748163    0.675898
-4.511843    17.305717    0.493303
-5.197952    17.325091    0.326781
-5.963788    17.538045    0.160689
-3.941353    17.759912    0.012383
-4.538236    17.421893    -0.161512
-2.669106    12.050973    -0.443970
-4.366373    16.914259    1.758087
-5.201198    17.481892    1.664392
-5.932727    17.587355    1.517842
-3.901845    17.782491    1.343001
-4.498963    17.437938    1.155749
-5.158843    17.361704    0.990419
-5.921607    17.584784    0.838686
-3.890033    17.755302    0.675712
-4.533245    17.608925    0.501548
-5.143921    17.338082    0.326727
-5.905169    17.542044    0.160559
-3.884925    17.763128    0.012377
-4.521880    17.580031    -0.162848
-4.424306    17.358549    1.802848
-5.134330    17.452864    1.660121
-5.869903    17.579002    1.515560
-3.845585    17.786579    1.342412
-4.485350    17.608324    1.166125
-5.114842    17.409063    0.992221
-5.856257    17.568752    0.837060
-3.834699    17.763246    0.675564
-4.490527    17.667315    0.502816
-5.092112    17.358578    0.326817
-5.838995    17.523080    0.160221
-3.828093    17.764209    0.012369
-4.477523    17.631619    -0.163198
-4.386325    17.432831    1.809157
-5.071027    17.435065    1.656941
-5.807499    17.571379    1.513360
-3.789336    17.790491    1.341823
-4.432037    17.624904    1.166317
-5.793253    17.559124    0.835751
-3.775403    17.752446    0.674709
-4.447007    17.723669    0.504029
-5.041896    17.384683    0.327016
-5.777690    17.518119    0.160013
-3.772537    17.770979    0.012366
-4.430217    17.672432    -0.163449
-4.323948    17.410477    1.805451
-5.016687    17.447669    1.656668
-5.748916    17.574903    1.512137
-3.732280    17.790319    1.340941
-4.407513    17.757552    1.174194
-5.005997    17.433401    0.991839
-5.723540    17.528382    0.833448
-3.715185    17.736560    0.673669
-4.398859    17.762459    0.504746
-4.976413    17.357780    0.326221
-5.710576    17.494888    0.159640
-3.714724    17.766808    0.012355
-4.384144    17.718944    -0.163754
-4.266960    17.409165    1.803949
-4.946256    17.403589    1.651034
-5.691286    17.581078    1.511159
-3.675867    17.792896    1.340278
-4.354913    17.778745    1.174707
-4.926043    17.355503    0.986542
-5.672194    17.553465    0.833809
-3.659945    17.743958    0.673521
-4.339360    17.755478    0.504167
-4.927498    17.388356    0.326510
-5.657797    17.515179    0.159666
-3.657577    17.765389    0.012346
-4.332846    17.744939    -0.163871
-4.206513    17.393161    1.800945
-4.881259    17.377454    1.647126
-5.634585    17.589914    1.510425
-3.618280    17.789432    1.339175
-4.299879    17.790083    1.174578
-4.887876    17.424371    0.989600
-5.602798    17.522258    0.831507
-3.604495    17.750208    0.673335
-4.283226    17.761904    0.503974
-4.863612    17.365843    0.325805
-5.590334    17.489592    0.159275
-3.599282    17.757904    0.012333
-4.277214    17.753289    -0.163826
-4.827123    17.389469    1.646853
-5.574270    17.587167    1.508714
-3.563099    17.797514    1.338954
-4.242733    17.792512    1.173874
-4.826661    17.411381    0.988017
-5.546302    17.530791    0.831100
-3.547084    17.746484    0.672778
-4.227788    17.771073    0.503864
-4.818045    17.408627    0.326329
-5.539063    17.514288    0.159345
-3.540285    17.746308    0.012318
-4.208854    17.707955    -0.163288
-4.792701    17.342956    -0.328519
-4.761896    17.360979    1.642764
-5.508060    17.565194    1.505372
-3.503661    17.783899    1.337115
-4.186298    17.797673    1.173362
-4.750798    17.344250    0.983376
-5.489508    17.538191    0.830649
-3.492236    17.755321    0.672703
-4.166624    17.755737    0.503064
-4.753010    17.380893    0.325535
-5.480228    17.514976    0.159197
-3.482356    17.739423    0.012305
-4.144007    17.676000    -0.162875
-4.733151    17.334428    -0.328081
-4.709393    17.378391    1.643037
-5.450011    17.568683    1.504231
-3.446427    17.780859    1.336085
-4.128068    17.794879    1.172337
-5.431539    17.541590    0.830016
-3.433001    17.741423    0.671775
-4.108750    17.753828    0.502650
-4.699924    17.396357    0.325553
-5.424397    17.525019    0.159136
-3.424503    17.732350    0.012293
-4.089308    17.686682    -0.162857
-4.680208    17.349834    -0.328099
-4.656312    17.393719    1.643128
-5.385852    17.551971    1.501378
-3.375238    17.704160    1.329537
-4.066111    17.775357    1.170223
-4.655117    17.413588    0.985669
-5.360143    17.500861    0.827307
-3.362860    17.669410    0.668654
-4.050259    17.748808    0.502154
-4.650398    17.425185    0.325824
-5.349528    17.472737    0.158512
