13.255851    10.279512    4.749569
13.917517    9.202899    4.402148
13.723854    9.834918    4.271684
13.199316    10.219818    4.051800
14.122899    9.344730    3.796813
14.089076    10.900474    3.626797
24.094554    17.198219    -0.265574
14.838523    9.739571    5.425180
13.181136    9.384918    4.754911
13.280466    10.233510    4.747117
13.675759    8.982857    4.316942
13.752382    9.791643    4.271193
13.185935    10.144905    4.038120
14.971807    9.840520    4.016899
12.947178    9.213915    3.396595
14.011361    10.771793    3.598268
24.189619    17.154296    -0.266040
14.869135    9.694523    5.425472
13.208301    9.343326    4.754348
12.783147    9.787934    4.558594
13.702443    8.940329    4.316687
13.825096    9.779638    4.284438
13.346696    10.203559    4.077747
14.506793    9.471274    3.884322
13.030481    9.213105    3.411017
14.042007    10.726971    3.597669
24.054122    16.947537    -0.263977
14.611444    9.462755    5.320827
13.250247    9.312139    4.759140
12.859826    9.784209    4.575213
13.792286    8.938741    4.336330
13.733680    9.651891    4.246911
13.267281    10.078503    4.044017
14.556248    9.439997    3.889791
13.104297    9.205125    3.422932
14.018654    10.641184    3.583305
24.291963    17.003828    -0.266013
14.682229    9.444787    5.336027
13.454179    9.393928    4.822013
12.835289    9.703512    4.555870
13.817206    8.894814    4.335565
13.747330    9.598611    4.242006
13.255479    10.005551    4.031044
14.700806    9.469802    3.920638
13.096389    9.139693    3.413526
14.058276    10.603436    3.585101
24.192138    16.823602    -0.264354
14.609596    9.334819    5.299196
13.482147    9.352060    4.821731
12.875000    9.671601    4.559412
13.185013    10.699738    4.633169
14.039938    8.977394    4.396791
13.857167    9.612197    4.266779
13.279116    9.959589    4.028921
14.713351    9.414138    3.916263
13.167765    9.129560    3.424813
14.056239    10.534398    3.576322
15.086351    9.630175    0.012183
14.624440    9.281242    5.294227
13.330653    9.186526    4.757449
12.904611    9.632055    4.559412
13.335678    10.754317    4.674497
14.420018    9.158217    4.506998
13.922514    9.594394    4.277816
13.315843    9.923449    4.030808
14.745458    9.371047    3.917138
13.149807    9.057500    3.412899
13.510050    10.060479    3.429487
49.378803    33.944486    3.845496
15.058007    9.554926    0.662970
15.108224    9.579026    0.012177
24.275947    16.661832    -0.264147
14.595406    9.200125    5.273474
13.297024    9.103309    4.735458
12.992063    9.635406    4.579844
13.379902    10.722402    4.678445
14.254229    8.991673    4.446537
14.054277    9.621734    4.309211
13.331387    9.871561    4.026326
15.288201    9.650252    4.053434
13.145250    8.995024    3.404538
13.515646    10.000333    3.423102
15.102467    9.518275    0.663639
15.134156    9.530498    0.012174
24.329430    16.588966    -0.264174
14.553853    9.111661    5.248335
13.328855    9.065170    4.736867
12.861223    9.477348    4.523451
13.414999    10.683106    4.679234
14.276832    8.944819    4.445006
14.002765    9.523506    4.284438
13.234021    9.736744    3.987879
15.211087    9.536441    4.025212
13.170359    8.953003    3.403911
13.999437    10.291981    3.537618
15.112963    9.460232    0.662822
15.165020    9.485083    0.012175
24.539995    16.622479    -0.265906
13.986450    8.696815    5.034076
13.362965    9.028532    4.739123
12.884805    9.433868    4.521544
13.479484    10.667043    4.690290
14.496308    9.020513    4.504702
14.011835    9.466933    4.278306
13.275598    9.704698    3.991418
15.243586    9.491792    4.026087
13.224509    8.930616    3.410808
13.502372    9.862883    3.404349
15.128337    9.405380    0.662227
12.597876    9.883845    0.138900
15.183855    9.432180    0.012167
24.347797    16.383546    -0.263277
14.783911    9.922653    5.232235
12.919134    9.398256    4.523451
13.492430    10.610134    4.683446
15.024002    9.285058    4.659808
14.027129    9.414716    4.274137
13.288011    9.651360    3.986228
15.161429    9.376208    3.996772
13.268087    8.900897    3.414989
12.956814    9.403553    3.259509
15.158821    9.359972    0.662301
12.697538    9.899254    0.139663
15.214423    9.386603    0.012168
24.439513    16.336555    -0.263726
14.266993    8.750329    5.115629
14.940411    9.961343    5.276781
12.938548    9.351812    4.520181
13.533279    10.575224    4.686342
15.780893    9.686048    4.885323
13.892206    9.262464    4.224346
13.254517    9.565054    3.967359
13.213764    10.301795    3.895932
15.192617    9.331181    3.997428
13.506912    9.001148    3.469334
12.933146    9.325931    3.246341
12.859862    9.962522    0.141112
24.528670    16.287498    -0.264147
14.311740    8.717463    5.122059
15.044493    9.964200    5.302720
13.005474    9.339574    4.533531
15.322596    9.340156    4.734554
14.213145    9.413586    4.313135
13.662095    9.795578    4.080341
13.291506    10.296997    3.909520
15.185353    9.262677    3.988021
13.598882    9.002312    3.485847
12.942579    9.272512    3.241553
13.993298    10.825445    3.428380
13.087668    10.074904    0.143271
24.514251    16.169773    -0.263457
14.115032    8.538384    5.042260
14.331180    9.428636    5.041080
13.122573    9.362778    4.564316
13.775879    10.629301    4.747675
14.712616    8.906538    4.537610
13.949588    9.177582    4.224592
13.718203    9.772224    4.088125
13.345417    10.273401    3.916088
14.267276    8.642728    3.739932
13.883816    9.129798    3.551689
12.948613    9.216851    3.235967
14.030336    10.785455    3.429331
41.954703    29.742257    0.929098
13.184438    10.085130    0.143991
13.741109    8.254717    4.899615
14.352008    9.379376    5.038261
14.645017    10.381366    5.082752
13.760957    10.550594    4.731355
14.632970    8.797091    4.504702
13.778855    9.004807    4.164500
13.767950    9.744127    4.094021
13.471255    10.304606    3.943719
15.952617    9.596884    4.173978
14.014920    9.154544    3.578025
12.968028    9.170858    3.233773
14.073501    10.750107    3.431804
13.766369    8.212520    4.899615
14.470042    9.393287    5.069556
13.448027    9.471005    4.657214
13.146342    10.015474    4.509449
14.636644    8.738278    4.497559
13.660863    8.868005    4.120596
14.172991    9.965669    4.205353
13.472564    10.240242    3.934886
15.981984    9.547897    4.173978
14.015047    9.093406    3.570919
12.973653    9.115256    3.228186
14.107198    10.707473    3.431994
13.755298    8.148800    4.886754
14.489116    9.342610    5.066173
13.469926    9.424738    4.654763
12.857024    9.732865    4.399944
14.932033    8.852603    4.579958
13.701042    8.834457    4.124520
13.479343    9.416266    3.990946
13.250534    10.007493    3.861054
14.258101    8.458774    3.716960
14.084802    9.077383    3.581579
12.994326    9.070363    3.226391
42.379363    29.461008    0.932457
13.806610    8.122078    4.896108
14.527406    9.304324    5.069556
13.487716    9.375680    4.650949
12.860610    9.673657    4.390994
14.717484    8.664493    4.505977
13.906866    8.906888    4.178235
13.447493    9.332758    3.973019
13.287407    9.971470    3.862865
14.276418    8.410533    3.714991
14.116702    9.036765    3.582624
13.003572    9.017611    3.221802
42.715538    29.500738    0.937858
14.236085    8.316043    5.039337
14.561550    9.263315    5.071530
13.592423    9.386745    4.677102
12.826862    9.586797    4.369409
14.806601    8.655898    4.525110
13.899772    8.842326    4.167933
13.401658    9.240158    3.951084
13.241414    9.873599    3.840670
13.602250    7.957253    3.533191
14.150137    8.997086    3.584087
13.240173    9.121659    3.273474
15.090541    9.564354    0.492807
14.853831    8.615888    5.248628
14.626399    9.241659    5.084217
14.447090    9.911644    4.960703
12.858538    9.549125    4.370199
15.333155    8.900714    4.677665
14.389888    9.092219    4.306513
13.474038    9.229203    3.964056
13.214513    9.790600    3.824137
13.489910    7.836085    3.497749
14.197517    8.966164    3.589104
13.442760    9.200541    3.316567
14.220170    10.520704    3.427809
15.127426    9.522804    0.493055
14.756718    8.499160    5.205074
14.719697    9.237542    5.106772
14.537061    9.907916    4.981136
12.895536    9.515358    4.372831
15.363740    8.855563    4.678686
14.448097    9.067096    4.315588
13.441230    9.146272    3.946130
13.135457    9.669749    3.792656
13.515578    7.795637    3.498187
14.717873    9.231744    3.713471
13.547905    9.211598    3.335520
15.150638    9.472639    0.492862
14.890645    8.515564    5.243074
13.893037    8.659465    4.810735
14.775336    10.004066    5.052240
13.034371    9.556179    4.409947
15.202857    8.700802    4.621541
14.363956    8.952986    4.282231
13.459566    9.098461    3.943300
13.139119    9.610429    3.785182
13.514875    7.740071    3.491842
15.128765    9.424923    3.809830
13.380406    9.037807    3.287439
15.177930    9.425059    0.492807
44.512891    29.941983    0.969180
14.968260    8.499117    5.261197
13.842855    8.569331    4.784233
14.707758    9.892637    5.018731
13.709283    9.986471    4.627904
14.728443    8.369407    4.469497
14.397950    8.912958    4.284193
13.521300    9.079879    3.953206
13.175632    9.575227    3.787221
13.824411    7.861119    3.565569
15.538483    9.614123    3.905562
13.373895    8.973783    3.279060
15.020090    8.467714    5.270258
13.866629    8.525314    4.783387
14.699638    9.821810    5.005655
14.023548    10.149689    4.723458
14.804578    8.352688    4.484803
14.824941    9.114491    4.402905
13.555561    9.042668    3.955093
13.238113    9.558708    3.796733
13.707412    7.739034    3.529253
15.511250    9.531590    3.891348
13.422563    8.946841    3.284247
15.840136    8.943144    3.375984
25.348634    15.518776    -0.266641
13.955771    8.521230    4.805096
14.731305    9.777730    5.006199
13.074776    9.402015    4.394153
15.379304    8.614852    4.650879
14.904134    9.100289    4.418113
13.593770    9.008016    3.958160
13.281622    9.528268    3.800809
13.614480    7.631578    3.499281
15.482822    9.448808    3.876926
13.519396    8.951602    3.301205
15.693395    8.796911    3.338942
14.806566    9.771940    0.970107
25.401251    15.444051    -0.266695
14.253395    8.643037    4.898419
14.778906    9.744141    5.012192
13.286458    9.492531    4.455486
14.920377    9.047484    4.414678
13.667610    8.996724    3.971604
13.308412    9.485780    3.800130
13.648914    7.595942    3.502125
14.249758    8.636409    3.561513
13.728544    9.029624    3.345495
16.185956    9.007866    3.437844
14.786372    9.693621    0.966831
15.455773    8.526833    5.395365
15.363121    9.251612    5.270015
15.246602    9.985531    5.160395
13.393401    9.507007    4.481546
14.953878    9.005167    4.416395
13.717921    8.969641    3.978209
13.974158    9.895789    3.981542
13.907880    7.684274    3.562506
14.189888    8.540709    3.539984
13.857083    9.053385    3.370034
15.953618    8.814569    3.382736
14.951593    9.736482    0.975677
44.589804    29.010304    0.961051
42.004873    29.552402    0.445514
25.353176    15.202537    -0.265206
15.479345    8.477996    5.394488
14.279811    8.539660    4.889396
14.470642    9.414017    4.887964
13.289265    9.371908    4.437060
15.077118    9.016467    4.444602
13.839912    8.988914    4.005570
14.030740    9.871365    3.989015
13.793650    7.566017    3.527284
14.227775    8.504158    3.542910
13.911096    9.027899    3.376418
15.976275    8.763218    3.381824
15.030021    9.722019    0.978844
25.582701    15.233656    -0.267117
13.895127    8.251840    4.748991
15.240509    9.848448    5.137784
13.319536    9.332200    4.437586
16.063097    8.740663    4.824862
15.078035    8.954328    4.436753
14.070757    9.077589    4.064302
13.581962    9.493466    3.853127
15.130520    8.239025    3.862663
14.252957    8.459969    3.542701
14.339824    9.243733    3.473577
15.997904    8.711341    3.380729
15.009373    9.643478    0.975567
25.752401    15.227880    -0.268400
13.955089    8.229641    4.760832
14.555663    9.342720    4.897227
13.489043    9.389397    4.484442
16.070270    8.680771    4.818995
15.132157    8.923786    4.444602
14.298183    9.162309    4.121854
13.365413    9.281195    3.783597
15.160876    8.195350    3.863976
14.275475    8.414216    3.541865
14.063606    9.004722    3.399960
16.135266    8.722065    3.404086
49.269610    33.997514    2.705704
15.073040    9.610297    0.322951
15.046633    8.811245    5.123970
14.753012    9.405607    4.953892
13.417807    9.278831    4.451275
16.020987    8.590760    4.796290
14.330324    9.121008    4.123034
13.407453    9.249549    3.787447
14.021766    7.524097    3.567757
14.298690    8.368897    3.541238
14.108530    8.972576    3.404150
15.677654    8.412648    3.302082
15.065732    9.549597    0.975404
49.578847    33.986842    2.716947
15.094006    9.558658    0.322771
25.719232    14.996042    -0.267090
15.057836    8.755879    5.118613
14.650922    9.277426    4.910031
13.558329    9.314647    4.488390
16.088237    8.563376    4.808536
15.299575    9.672095    4.393343
13.520128    9.266190    3.811228
14.954233    7.965468    3.798782
13.867734    8.059644    3.428366
14.720054    9.298184    3.544800
15.069609    9.487372    0.973766
49.675455    33.829514    2.716541
31.665563    16.838495    1.333259
15.118183    9.509112    0.322663
31.947933    16.973633    0.024625
25.762522    14.915564    -0.267063
15.117863    8.728830    5.129891
14.806373    9.312346    4.952530
13.621903    9.296936    4.499973
16.069123    8.490038    4.795015
15.347283    9.636480    4.398532
13.402766    9.125448    3.770234
14.769845    7.809177    3.745838
13.692504    7.901707    3.379037
14.233874    8.930104    3.421108
15.089333    9.435271    0.973165
31.634883    16.697886    1.329804
15.157461    9.469041    0.322879
44.592561    30.161364    0.466992
31.707963    16.721602    0.024400
25.956403    14.921676    -0.268597
14.829161    9.263309    4.950623
13.659943    9.261598    4.503131
16.113933    8.450577    4.800627
15.197840    9.477762    4.347347
13.578343    9.184148    3.811680
15.856477    8.321561    4.014930
13.901653    7.965650    3.424604
14.255383    8.882765    3.419711
15.100395    9.377870    0.972018
31.762090    16.640635    1.332999
15.187290    9.423022    0.322897
14.043995    8.713055    4.679554
15.407032    10.377289    5.068557
16.138068    8.400208    4.800117
14.931910    9.248415    4.263141
13.865973    9.316822    3.884381
15.388651    8.015925    3.890229
15.671029    8.915752    3.853725
14.306732    8.853943    3.425497
15.112948    9.321539    0.970981
47.063085    29.000909    0.998713
26.196237    14.846440    -0.270131
14.041170    8.651756    4.669747
14.489457    9.694777    4.756888
16.363062    8.453620    4.859302
14.940348    9.190341    4.257480
14.018440    9.356972    3.919033
15.786756    8.161820    3.984520
13.848092    7.822485    3.399521
14.357203    8.824376    3.431083
14.100042    9.397572    3.283604
15.143177    9.276173    0.971090
47.342866    28.973294    1.002759
26.113556    14.693917    -0.268812
14.052874    8.599598    4.664843
14.761773    9.811552    4.836385
16.379456    8.398527    4.856496
14.980912    9.152060    4.261018
14.071435    9.330067    3.925827
15.817799    8.116467    3.986051
13.916379    7.804838    3.410390
14.360789    8.765992    3.425497
14.405489    9.537452    3.347907
47.452039    28.840375    1.003193
26.185575    14.628850    -0.269090
14.056991    8.542952    4.657487
15.421381    10.181891    5.042233
16.408593    8.349990    4.857516
15.008920    9.106057    4.261018
14.292776    9.413828    3.979503
15.316567    7.800003    3.853694
15.101377    8.408631    3.694450
14.275329    8.653824    3.398763
14.367422    9.448978    3.332307
26.182237    14.521770    -0.268597
14.104553    8.512712    4.664570
15.448512    10.131886    5.040917
16.467792    8.316609    4.867465
15.102543    9.099587    4.279652
14.450370    9.454190    4.015287
15.140797    8.369831    3.697794
14.488182    8.722186    3.443053
14.318263    9.353846    3.314234
16.630535    8.404991    3.458281
26.218782    14.437035    -0.268516
14.697577    8.809224    4.851731
14.930668    9.726880    4.862182
16.475076    8.256950    4.862108
15.715738    8.629455    4.536089
14.971779    9.729858    4.151856
15.300142    8.396735    3.730402
14.352550    8.580651    3.404549
14.103949    9.152225    3.258112
16.988453    8.520551    3.527257
44.647758    28.820998    0.460980
26.276113    14.363723    -0.268651
14.821269    8.821669    4.883605
14.548179    9.414250    4.728196
15.609352    8.508816    4.497826
14.536750    9.383834    4.023214
15.518187    8.454555    3.777223
13.098070    7.776215    3.101302
14.133612    9.109975    3.258492
17.042681    8.482410    3.533096
44.696406    28.658518    0.460573
26.217227    14.227239    -0.267601
14.868143    8.787907    4.890144
13.939117    8.959569    4.521295
15.628562    8.457196    4.495864
14.608108    9.366530    4.034991
15.348795    8.301302    3.729775
12.960638    7.640942    3.063196
14.316933    9.166087    3.294258
16.068945    7.936348    3.326168
15.089980    9.610219    0.155190
26.080280    14.049519    -0.265762
15.083400    8.852807    4.951985
13.991747    8.932856    4.529455
15.674077    8.419760    4.501505
14.674566    9.345737    4.045409
15.367298    8.250473    3.728103
12.988248    7.603619    3.064194
15.247969    9.696335    3.501623
16.663561    8.166527    3.444048
15.057108    9.526688    0.805363
31.604336    16.908961    0.988675
15.114322    9.560671    0.155138
26.095042    13.954350    -0.265475
15.760564    9.185358    5.165027
14.375939    9.116178    4.644751
15.710101    8.377107    4.504449
14.894964    9.421995    4.098179
15.386497    8.200068    3.726640
13.011514    7.563736    3.064194
14.792074    9.342818    3.390331
15.100644    9.489485    0.806130
107.844743    52.350096    4.456530
31.614568    16.789885    0.987379
15.141042    9.512660    0.155112
26.042342    13.823592    -0.264506
15.837804    9.165396    5.181100
14.717303    9.269460    4.745833
15.764003    8.343836    4.512543
14.915554    9.371071    4.095914
15.377005    8.134533    3.718279
13.036355    7.524761    3.064592
14.977016    9.395475    3.426097
15.130533    9.443640    0.806175
107.892303    51.964783    4.451886
31.678310    16.699340    0.987765
49.966001    28.713306    1.041125
15.158279    9.458752    0.154990
26.011201    13.704942    -0.263762
14.788203    9.250870    4.759521
15.732026    8.265224    4.496109
14.947538    9.327329    4.096820
16.560404    7.927787    4.116441
15.433059    8.103686    3.725803
13.084035    7.498861    3.070378
14.898283    9.282510    3.401555
15.156039    9.395071    0.805995
31.746223    16.610880    0.988289
50.019987    28.540552    1.040421
15.178727    9.406935    0.154903
26.037175    13.616735    -0.263600
15.203438    8.674196    4.956072
14.315829    8.894382    4.598685
15.748713    8.212437    4.493656
14.904883    9.237301    4.077343
16.559088    7.864803    4.110096
15.450910    8.052684    3.724131
13.381212    7.614740    3.134619
14.312259    8.856544    3.261536
31.839617    16.535518    0.989612
26.061965    13.528037    -0.263430
15.173888    8.595737    4.937819
14.205119    8.765310    4.554462
15.873708    8.215774    4.522108
16.148231    9.131684    4.502787
15.060893    9.270155    4.112221
16.619328    7.831016    4.119066
15.455565    7.994909    3.719324
13.485559    7.619444    3.153572
50.763220    28.553176    1.052216
26.012676    13.401304    -0.262515
14.499277    8.885516    4.640013
14.946822    7.677996    4.251326
14.378065    8.072554    4.002267
15.091756    9.225430    4.112901
15.470451    7.942541    3.717025
13.513999    7.580912    3.154769
50.854944    28.399741    1.052306
30.048527    14.007389    0.022567
26.026958    13.307779    -0.262246
14.325388    8.718610    4.575784
14.979808    7.636947    4.254024
13.687209    7.629539    3.803428
15.024239    9.120958    4.086855
15.481676    7.888382    3.713889
15.167170    8.447216    3.534626
50.973316    28.261040    1.052957
29.978810    13.863090    0.022482
26.047154    13.217459    -0.262039
14.249689    8.612740    4.543143
15.007493    7.593142    4.255251
13.708001    7.586100    3.802720
15.937180    9.608397    4.327152
17.208405    7.915869    4.246829
15.638452    7.907924    3.745660
15.169003    8.387368    3.529040
30.320558    13.921823    1.240311
121.933912    61.436899    3.766128
30.114821    13.813996    0.022552
26.010775    13.098805    -0.261268
14.232206    8.542668    4.529191
15.042847    7.553154    4.258684
13.709917    7.532311    3.796823
16.083578    9.629505    4.358859
17.269007    7.879644    4.255799
15.657395    7.857277    3.744406
15.463527    8.488377    3.591485
122.468724    61.235982    3.776827
26.008799    12.997935    -0.260846
14.258348    8.498964    4.529191
15.080700    7.514318    4.262854
13.726990    7.486957    3.795172
16.118905    9.583600    4.360445
17.280654    7.820994    4.252736
16.579664    9.034976    3.844257
122.896002    60.979039    3.784216
26.039594    12.913636    -0.260756
14.285185    8.455671    4.529455
15.107159    7.469734    4.263835
14.045573    7.604901    3.876784
16.153265    9.537075    4.361804
17.306347    7.768740    4.253174
16.238426    8.784514    3.758869
123.140793    60.630414    3.786009
26.059353    12.823973    -0.260559
14.367615    8.445047    4.547355
14.484844    7.785370    3.991418
13.799489    8.090386    3.719503
16.657127    8.167926    3.965342
16.338680    8.774061    3.775827
31.625441    16.905081    0.647854
26.062631    12.726414    -0.260200
16.090517    8.600392    5.165844
14.785059    8.629493    4.671074
14.678423    7.831469    4.038120
13.789732    8.027920    3.710217
16.722558    8.136466    3.974957
16.611100    8.854801    3.832486
53.270257    25.823610    1.632911
31.652425    16.794856    0.647348
26.030461    12.611950    -0.259491
16.114279    8.549633    5.165027
15.298084    8.866117    4.824540
14.765071    7.819600    4.055338
13.550356    7.833001    3.639328
16.754487    8.088525    3.976629
16.185206    8.564111    3.728145
31.702917    16.697202    0.647330
26.041092    12.518600    -0.259213
16.111487    8.484912    5.155764
14.932216    8.592984    4.700820
14.837162    7.799587    4.068547
13.576013    7.792362    3.639781
16.717486    8.007514    3.961997
16.142870    8.478420    3.712385
31.774374    16.610514    0.647745
26.013489    12.407223    -0.258558
16.113566    8.422962    5.148136
14.962697    8.549525    4.702136
14.858436    7.752681    4.067840
13.531311    7.711610    3.621436
16.653649    7.914213    3.941095
16.282634    8.488194    3.738520
31.864234    16.533215    0.648540
25.945680    12.277315    -0.257509
16.133353    8.370385    5.146229
14.991373    8.505008    4.702926
14.883877    7.707954    4.068311
13.567622    7.677256    3.624833
16.640700    7.845568    3.932316
16.317302    8.442702    3.740515
25.958783    12.186184    -0.257267
15.123306    8.518633    4.736093
14.911776    7.664476    4.069491
13.634419    7.659925    3.636384
16.670893    7.797378    3.933780
16.384095    8.413640    3.749891
16.286502    9.135308    3.618623
25.996955    12.106908    -0.257276
14.908556    8.337521    4.660809
15.187127    7.747192    4.138129
13.780347    7.686383    3.668997
16.708930    7.752782    3.937124
16.986917    8.657449    3.881764
16.541745    9.211875    3.669038
26.025804    12.023319    -0.257195
15.386153    8.542753    4.801901
15.182212    7.686078    4.130346
13.886516    7.689839    3.690966
17.211448    7.921864    4.049786
16.408406    9.071779    3.633272
52.982981    29.127715    0.524475
28.188410    11.694506    0.020773
25.990755    11.910507    -0.256486
14.991239    7.531706    4.072085
13.834079    7.605438    3.670809
17.239228    7.870647    4.050622
16.404316    9.003919    3.626233
28.200109    11.598080    0.020755
25.988939    11.813333    -0.256109
15.002969    7.480041    4.069019
13.755606    7.507432    3.643858
17.266858    7.819335    4.051459
16.676442    8.306756    3.793184
16.674965    9.086013    3.679882
28.255004    11.519437    0.020770
25.987685    11.716694    -0.255742
13.822250    7.488859    3.655408
17.295226    7.768327    4.052503
16.694821    8.252080    3.791588
17.230364    9.320201    3.796120
25.941352    11.600171    -0.254934
16.054498    8.657812    4.976952
14.010718    7.535461    3.699119
17.321658    7.716424    4.053130
16.703344    8.192624    3.787797
16.434595    8.824690    3.614818
28.870950    11.576755    1.156353
31.619549    16.881096    0.310926
25.947568    11.507558    -0.254647
16.069926    8.602597    4.973529
13.920353    7.431889    3.669224
16.703730    8.129334    3.782211
16.511841    8.801011    3.625853
53.216767    25.773166    1.068238
31.676493    16.786818    0.310978
25.947968    11.412599    -0.254306
16.095392    8.552802    4.973266
13.937064    7.385954    3.667638
16.749769    8.088276    3.786999
16.549177    8.755821    3.628135
31.654391    16.650918    0.310258
25.935198    11.312149    -0.253840
16.168488    8.528137    4.987744
14.326019    7.535877    3.763893
16.778924    8.038967    3.787997
16.568139    8.700900    3.626423
25.954178    11.225779    -0.253687
16.239019    8.501760    5.001432
14.465632    7.552748    3.794468
16.800853    7.986190    3.787398
16.592144    8.648667    3.625853
25.965520    11.136247    -0.253463
16.275299    8.457237    5.004591
14.898648    7.720756    3.901820
16.848317    7.945475    3.792585
16.458160    8.514718    3.590848
25.972879    11.045185    -0.253203
16.257441    8.384714    4.991166
14.993290    7.711543    3.920392
16.882378    7.898316    3.794780
16.659744    8.554321    3.629087
29.871667    13.905434    0.595272
58.914813    30.073340    0.573788
25.981763    10.954960    -0.252961
14.957019    7.634952    3.904764
17.001637    7.890623    3.816127
16.796124    8.559334    3.653057
30.309050    13.996063    0.603129
59.137928    29.958878    0.575063
29.957944    11.259537    0.021784
25.976502    10.858999    -0.252584
15.258414    7.729884    3.977238
17.096083    7.870799    3.831888
16.529697    8.359779    3.589516
29.940974    13.714805    0.594965
59.231349    29.778204    0.575081
30.003592    11.171762    0.021793
26.002305    10.776190    -0.252512
15.251599    7.667723    3.969311
17.198586    7.854133    3.849444
16.533332    8.298018    3.584760
26.742600    9.896583    5.292162
30.097606    13.674995    0.597241
30.043354    11.081736    0.021797
25.936275    10.655705    -0.251552
15.288125    7.627418    3.972709
16.556075    8.245943    3.584189
26.929770    9.872021    5.323183
28.588321    11.667333    1.981605
30.005421    13.522206    0.594586
69.045662    34.183179    0.668319
30.071575    10.987453    0.021793
25.949397    10.568163    -0.251364
21.602787    9.725507    -0.432555
16.591856    8.200331    3.586472
26.987656    9.799422    5.328658
28.775700    11.640946    1.992108
29.994736    13.406831    0.593556
69.139445    33.965899    0.668215
30.014873    10.862473    0.021727
25.967788    10.482887    -0.251229
21.583224    9.637172    -0.431570
27.493682    9.887800    6.550733
16.603715    8.142904    3.583618
26.960231    9.695950    5.317344
25.639585    10.304220    4.849516
28.831656    11.560779    1.993517
30.025671    13.310288    0.593357
30.018875    10.759878    0.021706
25.924627    10.373080    -0.250503
21.717821    9.617467    -0.433669
27.556979    9.815190    6.558608
16.749557    8.150778    3.609682
26.849992    9.563377    5.289790
25.607939    10.200361    4.837589
30.027923    13.201208    0.592599
25.939597    10.286861    -0.250341
21.706947    9.533103    -0.432866
27.342187    9.644262    6.500414
16.770064    8.097218    3.608731
26.884768    9.482920    5.290885
26.956527    9.509818    4.222566
29.908126    11.761832    0.886463
30.097539    10.580126    0.021716
25.930086    10.191136    -0.249946
21.821341    9.503591    -0.434563
27.050148    9.448039    6.424063
16.806339    8.051244    3.611204
26.716607    9.333111    4.180479
30.166690    10.500559    0.021742
25.863392    10.073430    -0.249004
21.782471    9.407264    -0.433212
26.816184    9.274112    6.361712
16.814113    7.991638    3.607589
26.465765    9.152922    5.197275
30.164728    10.396230    0.021718
25.924961    10.005917    -0.249301
21.873729    9.367157    -0.434454
26.824201    9.184843    6.356899
26.471395    9.064040    5.192895
26.072294    10.016391    4.901719
30.239070    10.318169    0.021748
25.908837    9.908474    -0.248852
21.895922    9.297270    -0.434326
26.964996    9.140722    6.383590
26.865027    9.106834    5.264608
26.074366    9.925493    4.896361
29.910656    13.904930    0.286126
27.534473    9.301095    0.019783
25.922282    9.822562    -0.248691
22.035843    9.276992    -0.436535
26.870801    9.016975    6.354711
26.961728    10.172984    6.159437
26.901229    9.027185    5.266251
25.982124    9.799223    4.873371
27.559434    9.226656    1.080419
29.991313    13.830687    0.286491
27.518305    9.201672    0.019751
25.905487    9.725414    -0.248242
22.019913    9.190857    -0.435659
27.763249    9.221781    6.559046
26.970826    10.082001    6.154421
26.939993    8.948331    5.268441
26.140311    9.767385    4.897398
27.520263    9.119743    1.077782
28.157758    11.664081    0.550620
30.061792    13.751505    0.286760
27.564443    9.123173    0.019763
25.941762    9.648332    -0.248305
22.114524    9.150783    -0.436973
27.301045    8.975351    6.443314
26.998881    9.998189    6.153794
27.604330    9.075058    5.392889
28.080358    10.394223    5.254867
28.364429    11.661756    1.677035
28.175838    11.570423    0.550277
25.964674    9.566278    -0.248242
22.236848    9.121597    -0.438835
26.903475    8.753281    6.343116
27.138378    8.829709    5.296542
27.965081    10.254111    5.227383
28.730178    11.709216    1.696528
28.226020    11.489958    0.550566
32.790965    10.630233    0.023464
25.877420    9.444065    -0.247130
22.305480    9.069904    -0.439638
26.910699    8.664420    6.338522
26.673994    8.588209    5.200742
27.939936    10.147755    5.216838
28.858547    11.658420    1.701988
32.831043    10.532026    0.023469
25.902511    9.363270    -0.247094
22.421299    9.036936    -0.441373
27.142625    8.647279    6.386871
26.443529    8.424556    5.150744
27.967230    10.060656    5.216147
25.795205    10.366044    4.605274
28.796849    11.530855    1.696255
29.936376    11.972598    0.582483
30.062780    13.308300    0.285190
32.958512    10.461507    0.023537
25.901930    9.273309    -0.246816
22.467489    8.975524    -0.441738
26.471127    8.343981    5.151109
27.997036    9.974476    5.215974
25.846135    10.294522    4.608705
30.105882    11.933383    0.585066
32.889324    10.328583    0.023465
25.905754    9.185112    -0.246582
22.483764    8.902136    -0.441519
27.669161    9.766450    6.271682
26.514435    8.268290    5.154576
27.235212    9.609001    5.068527
25.868419    10.211557    4.607071
30.004622    11.786859    0.582393
29.941249    13.035373    0.283273
25.933812    9.105591    -0.246582
22.645926    8.886072    -0.444166
26.536857    8.186037    5.154028
26.216642    9.159288    4.873716
25.901463    10.132865    4.607398
25.945568    9.020401    -0.246430
22.674014    8.816915    -0.444184
26.460057    10.265870    5.778456
26.530814    8.095115    5.148006
26.683969    9.230798    4.955305
25.286694    9.803017    4.492671
29.970970    11.561868    0.580352
30.059279    12.867940    0.283637
25.961775    8.936854    -0.246322
22.696292    8.745514    -0.444093
26.368468    9.041974    7.052595
27.447042    9.404867    6.201451
26.488684    10.183588    5.777857
27.235131    8.218768    5.279754
27.088615    9.277823    5.025139
25.002610    9.604754    4.436941
29.949331    11.448087    0.579250
25.962568    8.848130    -0.246071
22.843512    8.721847    -0.446447
27.203500    9.228254    6.139999
26.633350    10.145529    5.802596
28.140189    8.397779    5.450186
26.045183    8.831263    4.826526
24.652085    9.383409    4.369609
25.282478    10.688838    4.281242
25.101410    7.492358    3.869650
27.554892    9.302970    0.802200
35.360685    10.511581    0.025110
25.988645    8.768117    -0.246062
23.007630    8.703726    -0.449131
27.331802    9.178373    6.162573
26.861458    10.138164    5.845489
26.037605    8.739720    4.820131
26.153091    9.862988    4.630278
25.368004    10.633376    4.290180
25.270394    7.458438    3.892155
27.554862    9.208883    0.801373
28.210758    11.770581    0.265161
26.008783    8.686126    -0.245999
22.813273    8.550288    -0.444823
27.826611    9.249635    6.267710
27.046631    10.113363    5.879006
26.072708    8.662592    4.821686
24.677775    9.220230    4.364052
25.405982    10.557773    4.291105
25.500181    7.441287    3.924012
27.573492    9.121163    0.801097
29.877238    11.106460    0.575854
28.226408    11.675567    0.264970
35.424517    10.294414    0.025110
26.088477    8.623866    -0.246502
23.069039    8.565523    -0.449295
27.441331    7.914907    6.403279
27.857643    9.165138    6.268338
26.942454    9.980302    5.849679
27.686032    9.104394    5.114852
24.662461    9.128381    4.356371
25.527781    10.516662    4.306208
25.772874    7.435136    3.962446
29.938380    11.024766    0.576378
28.238965    11.579430    0.264753
35.419411    10.175193    0.025084
26.120514    8.545653    -0.246555
23.309157    8.573401    -0.453457
26.257442    8.549487    5.902342
27.188209    9.976586    5.896363
27.359801    8.904193    5.049512
24.785755    9.087655    4.373204
25.475772    10.403927    4.292030
26.209396    7.474042    4.026014
29.906639    8.492261    0.021162
26.158977    8.469481    -0.246672
23.096736    8.414914    -0.448821
26.259348    8.461092    5.896907
27.378552    8.817495    5.047957
26.861916    9.755490    4.734219
26.323601    10.656057    4.429339
28.429803    8.012996    4.363294
28.872552    11.636317    1.407036
28.929988    11.655945    0.270556
29.949881    8.405332    0.021174
26.206741    8.396203    -0.246878
23.304894    8.409854    -0.452362
26.279592    8.378707    5.895653
27.360429    8.719102    5.039659
27.785697    9.994600    4.891602
26.237879    10.527783    4.409459
27.530810    7.668518    4.221689
29.977456    8.313942    0.021175
26.222844    8.312741    -0.246789
23.343767    8.343027    -0.452618
26.522472    8.366591    5.944355
26.907243    7.404433    5.179392
27.412414    8.643117    5.044327
27.790208    9.900038    4.887026
25.326230    10.071891    4.251037
27.442613    7.553303    4.204591
29.973520    11.863139    0.279629
29.840794    8.177531    0.021061
26.266351    8.237937    -0.246959
23.439943    8.296390    -0.453987
28.050962    8.754225    6.280879
26.945963    7.326232    5.182495
27.235704    8.495624    5.006989
25.122606    9.901757    4.211740
27.026542    7.349661    4.137369
29.991156    11.763823    0.279456
29.987363    8.118871    0.021147
26.287682    8.156129    -0.246923
23.427545    8.211210    -0.453257
27.702488    9.685789    5.974968
27.705868    8.549100    5.088578
25.200725    9.843328    4.219754
27.049919    7.266967    4.137516
29.979573    11.653280    0.279014
29.954169    8.011330    0.021106
26.309713    8.074561    -0.246896
23.521578    8.163227    -0.454589
27.587877    8.424293    6.165499
27.714480    9.594663    5.971177
28.241612    8.619609    5.182094
27.413972    9.482592    4.805311
25.283326    9.786297    4.228538
27.128501    7.198915    4.146137
27.487050    9.469749    1.589781
26.340102    7.995548    -0.246950
23.521928    8.082578    -0.454115
26.922133    9.220082    4.714117
25.714530    9.862597    4.295574
27.160028    7.118160    4.147599
27.478171    9.372482    1.587597
26.345354    7.908950    -0.246771
23.589210    8.024866    -0.454936
27.603440    8.244224    6.157556
26.784588    9.089080    5.758705
28.289252    8.444751    5.181230
27.487523    9.319590    4.808089
25.945090    9.859826    4.329015
27.486291    7.113621    4.194069
27.473685    9.276956    1.585686
27.448758    9.255731    0.523326
29.867819    7.694387    0.020994
26.382915    7.832071    -0.246896
23.648777    7.964265    -0.455612
27.629542    8.159776    6.157765
26.695307    8.967547    5.733567
27.001958    7.970334    4.940958
26.245873    8.808926    4.586152
25.818022    9.720994    4.302817
27.209902    6.953089    4.148622
27.158253    9.077719    1.565866
27.551000    9.196168    0.524735
29.813752    7.582998    0.020940
26.460549    7.766863    -0.247399
23.723371    7.908432    -0.456579
27.712646    8.091966    6.170725
26.703168    8.879112    5.729377
26.485405    9.902257    5.479396
27.892366    8.140216    5.099295
26.230644    8.714367    4.578798
25.185817    9.394834    4.192631
27.583176    9.125769    1.588744
27.608514    9.121322    0.525295
29.847546    7.494174    0.020947
26.483293    7.685369    -0.247390
23.874753    7.877593    -0.459025
26.522717    8.728835    5.684888
26.521184    9.823000    5.480537
26.736169    7.713855    4.883569
26.277875    8.640631    4.582393
24.686246    9.122307    4.104790
28.300320    7.047029    4.308201
28.171864    9.224739    1.621013
32.758616    10.711457    0.622656
29.967498    11.018043    0.276966
29.819923    7.390059    0.020912
26.616323    7.635517    -0.248412
23.889304    7.801206    -0.458843
26.855908    8.747265    5.750525
26.566865    9.747337    5.483772
26.759708    7.631793    4.883569
26.486258    8.619196    4.614099
24.709477    9.044829    4.104019
28.199082    9.137957    1.620959
32.757078    10.599823    0.622005
29.854113    7.301389    0.020920
26.619421    7.548095    -0.248224
23.937862    7.735871    -0.459317
26.889146    8.666935    5.751922
26.961108    9.798238    5.558918
26.782049    7.549392    4.883397
27.094795    8.725391    4.715425
24.701812    8.956181    4.098163
27.510066    8.821511    1.579789
63.917951    15.449468    2.444586
29.843321    7.201788    0.020897
26.682892    7.477725    -0.248601
23.955769    7.660568    -0.459208
26.894137    8.577552    5.747333
27.218277    9.797271    5.605717
26.798443    7.465340    4.882186
27.457951    8.749454    4.773933
24.760789    8.891709    4.103403
27.576974    8.749752    1.582082
30.020551    10.724943    0.276533
29.811772    7.097458    0.020859
26.578502    7.360600    -0.247417
24.007757    7.596085    -0.459755
27.129146    9.692094    6.698638
27.246357    9.713061    5.605337
26.976958    7.425959    4.910535
27.505366    8.671699    4.777528
24.958314    8.876290    4.131605
27.596067    8.662714    1.581646
30.038231    10.627454    0.276394
29.801280    6.998419    0.020837
26.619285    7.284038    -0.247587
23.965110    7.501785    -0.458496
27.199155    9.623112    6.708603
27.610220    9.747407    5.674015
26.977754    7.337215    4.906559
27.223870    8.491216    4.724087
24.991020    8.801647    4.132529
27.656843    8.588670    1.583611
30.031059    10.521361    0.276030
29.814817    6.905152    0.020831
26.628956    7.198945    -0.247470
24.112173    7.466674    -0.460869
26.699993    9.354439    6.578376
27.744715    9.699263    5.695513
26.993478    7.252624    4.905349
27.148923    8.376532    4.706600
25.024435    8.727212    4.133608
27.673517    8.500848    1.583065
30.081145    10.435405    0.276194
29.834886    6.813426    0.020831
26.712749    7.133726    -0.248045
24.369186    7.464406    -0.465342
26.561085    9.214379    6.537157
28.714229    8.771320    6.112826
27.765065    9.610887    5.693610
27.006081    7.167249    4.903621
25.083496    7.655063    4.344440
26.313782    9.086416    4.341961
27.838954    8.458286    1.591037
29.841016    6.718567    0.020821
26.748044    7.055310    -0.248170
24.381446    7.386418    -0.465141
26.538564    9.115445    6.524700
27.500000    8.308255    5.848881
27.733126    9.504653    5.681054
25.089862    7.572941    4.341499
26.335925    9.003725    4.341036
30.055986    6.681709    1.144614
29.827318    6.619402    0.020797
26.795691    6.980020    -0.248412
24.378132    7.303835    -0.464648
26.685363    9.074435    6.553916
27.290638    8.153719    5.799005
27.678484    9.391135    5.663932
27.840285    8.310000    4.812992
26.357808    8.920985    4.340111
27.551136    9.277737    1.314020
30.070488    6.588183    1.144391
27.506228    9.259407    0.251759
29.831855    6.524443    0.020786
26.808264    6.895538    -0.248332
24.417681    7.234121    -0.464976
26.840468    9.035407    6.585171
27.436751    8.105768    5.824741
26.856556    9.020475    5.490050
27.834424    8.215332    4.807599
24.519746    8.215124    4.033284
27.502706    9.167579    1.310362
30.068092    6.491047    1.143536
41.253123    10.485366    1.174073
27.537351    9.175924    0.251785
29.840001    6.430361    0.020778
26.829293    6.813258    -0.248332
24.653732    7.221854    -0.469047
26.967861    8.986274    6.609631
27.448322    8.017709    5.821948
26.826344    8.918834    5.478254
24.586098    8.153544    4.040065
27.454809    9.058120    1.306750
30.077113    6.396483    1.143128
41.290917    10.360214    1.174239
27.559677    9.089518    0.251733
29.829264    6.332346    0.020757
26.841340    6.728727    -0.248251
24.680573    7.147574    -0.469139
26.627904    8.762229    5.432215
27.260228    8.947634    4.474955
27.561288    8.999583    1.310498
30.113223    6.307660    1.143759
29.813313    6.233434    0.020732
27.066673    6.697024    -0.250144
24.714881    7.075399    -0.469376
26.863762    8.748591    5.474830
27.091050    7.725588    4.666723
27.034766    8.781846    4.433500
30.057072    6.199700    1.140899
29.940096    7.317227    0.850149
32.920771    10.634150    0.300101
29.815646    6.138510    0.020721
27.211432    6.644314    -0.251292
24.740321    7.000630    -0.469449
26.671268    8.615532    6.517226
27.060537    8.720940    5.509455
27.096584    7.637352    4.663618
26.002409    8.358395    4.259976
30.119041    6.116207    1.142533
30.022652    7.239866    0.851859
32.918952    10.522140    0.299788
29.809836    6.042042    0.020704
27.075173    6.523091    -0.249848
25.070769    7.011132    -0.475309
26.797773    8.565694    6.541686
27.341577    8.719008    5.561200
27.194016    7.574834    4.676365
26.049587    8.285470    4.263520
30.109246    6.018095    1.141456
30.022356    7.142403    0.851225
30.026172    8.310102    0.562849
29.785083    5.941950    0.020674
27.274066    6.482541    -0.251498
25.085416    6.932319    -0.475181
26.800710    8.476096    6.536024
27.162224    8.570097    5.519347
27.099180    7.458904    4.656100
25.658304    8.074418    4.195405
64.011975    12.640212    7.217284
30.120704    5.924343    1.141196
29.949296    8.189987    0.560934
29.803172    5.850543    0.020674
27.508982    6.449277    -0.253481
25.135501    6.863227    -0.475729
27.060938    8.446940    5.493474
25.094277    7.812393    4.099242
30.154435    5.834943    1.141790
29.869072    8.069642    0.558965
29.823928    5.759649    0.020676
27.468235    6.350884    -0.252925
25.188294    6.794673    -0.476331
27.189909    8.395740    5.514401
25.119072    7.735659    4.099396
63.967275    12.224071    7.203651
29.906247    7.981318    0.559200
29.900402    5.679320    0.020716
27.542187    6.279030    -0.253427
25.304669    6.742851    -0.478138
27.431491    8.378240    5.558157
25.036825    7.626313    4.082136
29.913190    7.884942    0.558875
35.403059    10.720468    0.320875
29.748611    5.555983    0.020599
27.504736    6.181784    -0.252907
25.294295    6.657042    -0.477554
26.827403    8.103837    5.430693
25.139574    7.573406    4.095081
63.913037    11.807689    7.189249
29.909181    7.785828    0.558351
30.002553    5.508208    0.020763
27.733474    6.143872    -0.254836
25.447171    6.613865    -0.480055
28.019499    8.370218    5.666785
26.665464    7.943936    4.339649
29.895159    7.684324    0.557646
35.324353    10.460448    0.319574
27.679097    4.993909    0.019145
28.026715    6.118691    -0.257356
25.459595    6.533775    -0.479909
27.792721    8.209681    5.615801
25.650934    7.556094    4.170748
30.563113    5.429038    1.153975
29.896304    7.586914    0.557231
35.373551    10.357083    0.319730
27.720873    4.913680    0.019163
28.065885    6.037093    -0.257545
25.496966    6.460055    -0.480238
27.735790    8.100431    5.599249
25.607590    7.458022    4.159960
63.807535    11.181891    7.165501
29.899074    7.490056    0.556852
35.393636    10.245174    0.319626
27.743698    4.829983    0.019169
28.111664    5.956764    -0.257796
25.513757    6.381074    -0.480183
27.857662    8.043351    5.618844
25.575280    7.363568    4.151022
29.882117    7.388452    0.556111
29.916197    8.560270    0.269923
28.254125    5.896434    -0.258935
25.536124    6.303487    -0.480238
27.982098    7.963650    4.537676
29.885217    7.292000    0.555750
29.965412    8.474979    0.270131
29.899093    5.016402    0.020636
28.264245    5.808114    -0.258863
25.574772    6.229847    -0.480603
28.510504    8.019562    4.619353
29.886062    7.195131    0.555352
29.993198    8.383546    0.270149
29.773242    4.901421    0.020539
28.172160    5.699167    -0.257859
25.584044    6.149019    -0.480420
28.517837    7.927292    4.616579
29.884649    7.097863    0.554919
29.947451    8.271787    0.269507
29.805909    4.812924    0.020551
28.044367    5.583810    -0.256531
25.660187    6.084108    -0.481497
26.667933    7.324998    4.313450
63.845911    10.181783    7.151429
29.850797    6.993145    0.553889
29.877184    8.153807    0.268648
29.865969    4.728651    0.020582
28.126131    5.510433    -0.257123
25.672889    6.003989    -0.481388
26.592063    7.216494    4.297577
29.842885    6.894779    0.553347
29.980263    8.083191    0.269351
29.901087    4.640222    0.020597
27.992676    5.395163    -0.255751
25.676575    5.921827    -0.481114
26.599763    7.131039    4.295266
63.887533    9.786830    7.149230
29.837576    6.797194    0.552860
29.944842    4.552975    0.020617
28.001236    5.307768    -0.255679
25.689748    5.841916    -0.481023
28.157372    7.456095    4.543070
63.718706    9.560986    7.127021
29.844632    6.702554    0.552607
29.934524    7.874154    0.268500
29.998233    4.466975    0.020644
27.694954    5.161741    -0.252736
25.703646    5.762199    -0.480950
28.204011    7.375924    4.546922
63.794944    9.372390    7.132299
29.844553    6.606423    0.552227
29.998222    7.792587    0.268856
30.263138    4.411560    0.020817
27.708693    5.076390    -0.252718
25.709489    5.680726    -0.480731
28.018910    7.235749    4.513481
63.819460    9.176060    7.131859
29.857844    6.513338    0.552101
29.817613    7.648096    0.267026
27.669024    4.981435    -0.252216
25.718003    5.599909    -0.480566
21.761336    5.567529    -0.626643
28.086934    7.161472    4.520878
29.955359    5.304700    0.839120
29.822945    6.409939    0.551089
29.821549    7.551671    0.266852
27.690086    4.897569    -0.252270
25.694981    5.512382    -0.479818
21.798668    5.505880    -0.627229
29.964598    5.211574    0.838927
29.770086    6.303088    0.549753
29.835844    7.457962    0.266774
32.758721    4.467839    0.022505
27.719759    4.815161    -0.252404
25.703947    5.431871    -0.479672
21.874623    5.453728    -0.628930
48.195683    8.278637    6.741287
63.813542    8.576510    7.122074
48.389147    8.289264    3.150675
63.768676    8.521762    2.391685
29.996213    5.122312    0.839368
29.815711    6.217236    0.550240
29.862469    7.367350    0.266809
32.750465    4.364409    0.022490
27.753129    4.733289    -0.252575
25.696019    5.347894    -0.479215
21.866984    5.380621    -0.628233
63.789434    10.726057    4.151245
30.004885    5.029104    0.839175
29.791552    6.116885    0.549446
29.840238    7.264818    0.266410
32.727010    4.259137    0.022464
