-4.580269    16.022065    -1.368558
-4.577351    14.066100    -1.354260
-5.008895    13.677994    -1.477277
-2.796698    11.364039    -1.280873
-2.553093    8.950381    -1.107039
-2.519635    7.750598    -1.048215
-2.549381    6.968477    -1.027655
-1.616504    6.582820    -0.994782
-1.705038    5.990429    -0.973664
-1.777954    5.478882    -0.956375
-1.857390    5.078638    -0.953219
-1.468100    4.013556    -0.917436
-5.657784    17.507435    -0.335931
-6.364075    17.507969    -0.519697
-4.301678    17.620796    -0.652421
-4.895360    17.294074    -0.813975
-5.575724    17.280303    -0.998318
-4.529467    16.030288    -1.368067
-4.526544    14.056379    -1.351981
-4.966908    13.693296    -1.477277
-2.755956    11.348416    -1.278153
-2.524813    8.955304    -1.106685
-2.493415    7.750739    -1.047194
-2.528327    6.977197    -1.027792
-1.577427    6.509861    -0.983020
-1.686651    5.995632    -0.973664
-1.760232    5.481493    -0.955883
-1.837440    5.072275    -0.950962
-1.454115    4.013445    -0.916387
-5.599478    17.510424    -0.335657
-6.300174    17.499195    -0.518861
-4.245492    17.625166    -0.652097
-4.847123    17.326327    -0.814789
-5.583422    17.487565    -1.009298
-6.258752    17.402248    -1.193653
-4.475172    16.025869    -1.366511
-4.483701    14.071149    -1.352072
-4.918146    13.689744    -1.475259
-2.727612    11.383885    -1.281199
-2.499726    8.971617    -1.107748
-2.468120    7.753626    -1.046557
-2.506575    6.983988    -1.027655
-1.578842    6.604163    -0.996524
-1.668249    6.000778    -0.973664
-1.743705    5.487808    -0.956047
-1.830517    5.101989    -0.955476
-1.444767    4.026170    -0.918276
-5.541809    17.515129    -0.335420
-6.237392    17.493020    -0.518108
-4.196943    17.661442    -0.652960
-4.798735    17.358447    -0.815604
-5.482222    17.354179    -1.000624
-2.850243    12.022285    -0.896277
-4.423863    16.031838    -1.365857
-4.431527    14.056346    -1.349337
-4.868787    13.684147    -1.473039
-2.694046    11.398004    -1.281852
-2.469553    8.969670    -1.106566
-2.450578    7.781028    -1.049236
-2.480160    6.977645    -1.025597
-1.536999    6.517492    -0.982730
-1.649831    6.005868    -0.973664
-1.730411    5.504425    -0.958013
-1.797049    5.057470    -0.946102
-1.427497    4.016764    -0.915127
-5.474307    17.488156    -0.334580
-6.173045    17.481911    -0.517215
-4.146160    17.688830    -0.653499
-4.731507    17.322013    -0.813206
-2.813346    12.030973    -0.896277
-4.374396    16.044374    -1.365775
-4.394016    14.087938    -1.351069
-4.822153    13.685882    -1.471627
-2.663578    11.425577    -1.284028
-2.440720    8.972413    -1.105976
-2.418138    7.761049    -1.045536
-2.455124    6.974944    -1.024088
-1.538739    6.615653    -0.996815
-1.632174    6.013762    -0.974127
-1.714101    5.511591    -0.958340
-1.780544    5.060173    -0.945581
-1.413219    4.015591    -0.913868
-5.417080    17.493408    -0.334361
-6.118062    17.496992    -0.517104
-5.395986    17.453312    -1.004412
-6.054225    17.332872    -1.185022
-2.747287    11.913204    -0.886872
-4.322559    16.048096    -1.364956
-4.339617    14.065193    -1.347604
-4.775226    13.686521    -1.470113
-2.632521    11.451134    -1.285986
-2.413182    8.979859    -1.105976
-2.386136    7.741892    -1.041964
-2.432735    6.979637    -1.023676
-1.495653    6.521014    -0.981859
-1.600923    5.971026    -0.966405
-1.702695    5.534739    -0.961452
-1.765336    5.066542    -0.945754
-1.399284    4.015292    -0.912819
-5.355479    17.484132    -0.333868
-6.050290    17.475063    -0.515905
-4.641085    17.410567    -0.816011
-5.311170    17.367617    -0.998538
-6.048968    17.490003    -1.194491
-2.700994    11.878785    -0.883688
-4.277660    16.077653    -1.366348
-4.294120    14.070820    -1.346875
-4.726717    13.682300    -1.468095
-2.603530    11.486302    -1.289032
-2.388678    8.998738    -1.107393
-2.371050    7.777638    -1.045791
-2.412280    6.989877    -1.024088
-1.500736    6.636551    -0.998557
-1.577791    5.957763    -0.963470
-1.686281    5.541824    -0.961780
-1.755565    5.088691    -0.948879
-1.382813    4.007550    -0.910090
-5.238907    17.292836    -0.329907
-5.992759    17.482195    -0.515570
-4.588666    17.428588    -0.816192
-5.261331    17.395298    -0.999197
-5.936444    17.336651    -1.182768
-2.667374    11.899667    -0.884629
-3.178139    12.094293    -1.026991
-4.250932    14.083928    -1.346875
-4.682786    13.691089    -1.467490
-2.569579    11.500056    -1.289685
-2.364836    9.020432    -1.109165
-2.349182    7.791522    -1.046684
-2.393386    7.004743    -1.025185
-1.554755    5.944415    -0.960535
-1.667281    5.540359    -0.960633
-1.744719    5.108032    -0.951483
-1.368299    4.005297    -0.908621
-5.192429    17.330856    -0.330327
-5.937491    17.495766    -0.515431
-4.516069    17.369103    -0.812754
-5.217667    17.443883    -1.001063
-5.893801    17.385970    -1.184893
-2.637094    11.936037    -0.886727
-3.116986    12.011376    -1.019133
-4.205994    14.091179    -1.346328
-4.639484    13.701622    -1.467086
-2.527872    11.478762    -1.286421
-2.333417    9.013225    -1.107393
-2.327817    7.807247    -1.047832
-2.373472    7.016744    -1.025871
-1.454042    6.618576    -0.994491
-1.647462    5.535993    -0.958995
-1.725570    5.103099    -0.949573
-1.353812    4.002993    -0.907151
-5.162523    17.425314    -0.331823
-5.875828    17.490210    -0.514734
-4.481391    17.455446    -0.816147
-5.124760    17.326717    -0.993432
-2.599401    11.939199    -0.886365
-3.074926    12.000608    -1.017415
-4.161897    14.101151    -1.346054
-4.590786    13.695981    -1.464967
-2.494962    11.497149    -1.287618
-2.304525    9.015531    -1.106803
-2.305537    7.820061    -1.048598
-2.351304    7.022115    -1.025597
-1.430799    6.609468    -0.992458
-1.631862    5.545754    -0.959814
-1.722097    5.144791    -0.956344
-5.072780    17.317293    -0.329469
-5.818356    17.496772    -0.514399
-4.423399    17.451684    -0.815332
-5.055044    17.285816    -0.990193
-5.763418    17.350778    -1.180063
-2.565689    11.960771    -0.887378
-4.111921    14.090910    -1.343866
-4.545300    13.699614    -1.463857
-2.451572    11.466838    -1.283375
-2.271509    9.001376    -1.104204
-2.285698    7.841380    -1.050511
-2.329438    7.028355    -1.025460
-1.411134    6.616729    -0.992894
-1.614014    5.547892    -0.959323
-1.708163    5.155659    -0.957385
-5.022131    17.341418    -0.329633
-5.750273    17.470863    -0.513116
-5.015021    17.346326    -0.992774
-5.700809    17.339939    -1.178130
-2.528982    11.968586    -0.887378
-4.067567    14.099631    -1.343502
-4.494558    13.687028    -1.461032
-2.418635    11.485004    -1.284572
-2.249403    9.030465    -1.106921
-2.259982    7.842637    -1.049746
-2.306321    7.030763    -1.024774
-1.390217    6.618123    -0.992458
-1.593168    5.539545    -0.957030
-1.693565    5.164618    -0.958080
-4.965878    17.346172    -0.329432
-5.687049    17.458958    -0.512252
-2.507491    12.049522    -0.892804
-4.024564    14.113001    -1.343593
-4.454390    13.706430    -1.461638
-2.386819    11.508918    -1.286421
-2.221213    9.035395    -1.106685
-2.232650    7.838087    -1.048215
-2.283517    7.034037    -1.024225
-1.369906    6.622357    -0.992458
-1.579133    5.554845    -0.958832
-1.676192    5.165106    -0.957212
-4.904198    17.331500    -0.328866
-5.618432    17.429706    -0.510885
-2.980408    12.230183    -0.570081
-4.899264    17.344100    -0.990907
-2.452093    11.967268    -0.886148
-3.982868    14.131033    -1.344140
-4.397089    13.672675    -1.456593
-2.354085    11.528848    -1.287836
-2.196058    9.052782    -1.107984
-2.216925    7.874496    -1.052170
-2.258593    7.030635    -1.022716
-1.349188    6.624589    -0.992168
-1.556747    5.540669    -0.955556
-1.658532    5.164598    -0.956170
-4.847771    17.334910    -0.328647
-5.584069    17.506857    -0.512642
-2.872809    11.947881    -0.556509
-4.843076    17.348471    -0.990303
-5.520376    17.327016    -1.173751
-2.411027    11.953225    -0.884556
-2.867463    11.950419    -1.009311
-3.939228    14.142227    -1.344049
-4.351802    13.675673    -1.455483
-2.321446    11.549660    -1.289359
-2.167349    9.055614    -1.107511
-2.186907    7.860238    -1.049363
-2.237013    7.037532    -1.022716
-1.330802    6.638399    -0.993620
-1.537365    5.536864    -0.954082
-1.641486    5.165908    -0.955476
-5.528527    17.518187    -0.512475
-2.898623    12.220052    -0.568769
-4.795936    17.385385    -0.991566
-5.481892    17.390506    -1.176907
-2.370266    11.940021    -0.883037
-3.897672    14.160966    -1.344687
-4.301460    13.662388    -1.452658
-2.284265    11.547951    -1.288380
-2.138416    9.057389    -1.106921
-2.161993    7.864042    -1.048980
-2.215411    7.044361    -1.022716
-1.311770    6.649245    -0.994636
-1.523764    5.553922    -0.956211
-1.625630    5.170920    -0.955476
-5.469095    17.516937    -0.511945
-2.813554    12.025591    -0.559314
-4.738375    17.384604    -0.990687
-5.439505    17.442493    -1.179290
-2.330755    11.932554    -0.881952
-2.773690    11.880439    -1.001945
-3.854208    14.172858    -1.344687
-4.263074    13.686919    -1.453868
-2.248826    11.554905    -1.288380
-2.113546    9.076479    -1.108456
-2.139416    7.876380    -1.049746
-2.194378    7.053017    -1.022990
-1.291741    6.655181    -0.994927
-1.506976    5.559523    -0.956375
-1.610343    5.177764    -0.955823
-5.410314    17.517397    -0.511471
-4.688133    17.410629    -0.991346
-5.392145    17.479123    -1.180642
-2.287172    11.903408    -0.879275
-2.740135    11.901519    -1.003009
-3.805799    14.166343    -1.342955
-4.216376    13.684721    -1.452254
-2.208879    11.538318    -1.285769
-2.087245    9.089695    -1.109283
-2.112928    7.874285    -1.048598
-2.173020    7.060663    -1.023127
-1.273358    6.669802    -0.996524
-1.488637    5.559355    -0.955556
-1.595319    5.185504    -0.956344
-5.318871    17.410590    -0.507873
-4.619553    17.367998    -0.988107
-5.306457    17.390592    -1.173557
-2.255087    11.933890    -0.881011
-2.711993    11.946802    -1.006119
-3.766406    14.193352    -1.344413
-4.163061    13.660477    -1.448319
-2.183953    11.600724    -1.291970
-2.063953    9.116395    -1.111763
-2.087236    7.874978    -1.047832
-2.151348    7.067296    -1.023127
-1.254350    6.681457    -0.997686
-1.470817    5.561035    -0.955064
-1.578542    5.187547    -0.955823
-5.237965    17.335921    -0.505224
-4.540370    17.283585    -0.982508
-5.264034    17.443094    -1.176005
-2.269476    12.215320    -0.901269
-2.675327    11.955067    -1.006119
-3.700880    14.121033    -1.336481
-4.115102    13.653180    -1.446200
-2.146362    11.596617    -1.290773
-2.035975    9.122684    -1.111763
-2.064322    7.886143    -1.048470
-2.130798    7.077657    -1.023676
-1.233846    6.685274    -0.997686
-1.453749    5.565521    -0.955064
-1.561201    5.187650    -0.954955
-5.186185    17.356699    -0.505364
-4.511644    17.391185    -0.987833
-5.189662    17.389356    -1.171303
-2.219626    12.154526    -0.896277
-2.635847    11.950566    -1.005055
-3.655294    14.123645    -1.335661
-4.071775    13.660973    -1.445695
-2.113087    11.615862    -1.292188
-2.005204    9.116280    -1.110228
-2.038380    7.885717    -1.047577
-2.116988    7.110743    -1.027517
-1.213683    6.690975    -0.997976
-1.543311    5.185808    -0.953740
-5.122714    17.338017    -0.504360
-5.133746    17.396582    -1.170723
-2.115736    11.790197    -0.868929
-2.593878    11.934249    -1.003009
-3.577183    13.998751    -1.322806
-4.029563    13.672447    -1.445595
-2.079189    11.632075    -1.293276
-1.978278    9.127241    -1.110818
-2.015404    7.896739    -1.048215
-2.092086    7.106752    -1.026008
-1.193671    6.697589    -0.998412
-1.520722    5.167844    -0.949573
-5.065293    17.339259    -0.503941
-2.101371    11.920393    -0.878045
-2.553914    11.926557    -1.001699
-3.037786    12.041799    -1.136998
-3.985928    13.679014    -1.444989
-2.043493    11.638399    -1.293276
-1.961672    9.186678    -1.117314
-1.995529    7.920197    -1.050511
-2.065290    7.096018    -1.023539
-1.173458    6.703169    -0.998702
-1.505135    5.173431    -0.949747
-5.006249    17.334549    -0.503356
-4.993994    17.313653    -1.163058
-2.072446    11.971008    -0.881301
-2.521837    11.955791    -1.003500
-2.996737    12.034635    -1.135449
-3.942841    13.687354    -1.444586
-2.009804    11.656369    -1.294581
-1.934500    9.197511    -1.117905
-1.969785    7.920507    -1.049746
-2.040223    7.090898    -1.021893
-1.150876    6.695036    -0.996960
-1.494973    5.197900    -0.953393
-4.947556    17.330603    -0.502798
-4.936202    17.312578    -1.161963
-2.485348    11.964447    -1.003582
-3.895108    13.679292    -1.442467
-1.973038    11.656600    -1.293928
-1.904662    9.195624    -1.116960
-1.935310    7.885093    -1.044261
-2.017917    7.095218    -1.021618
-1.129837    6.695609    -0.996524
-1.479827    5.205304    -0.953913
-4.898978    17.362054    -0.503272
-2.446433    11.961275    -1.002681
-2.923307    12.054732    -1.135631
-3.844767    13.661489    -1.439339
-1.940199    11.680250    -1.295887
-1.880608    9.221857    -1.119440
-1.927452    7.958470    -1.053190
-1.996676    7.103282    -1.021893
-1.105249    6.674641    -0.992894
-1.468379    5.225937    -0.956865
-4.838439    17.351004    -0.502519
-4.824794    17.324275    -1.160740
-1.964596    12.004340    -0.882386
-2.405004    11.945275    -1.000717
-2.883066    12.050084    -1.134354
-3.799104    13.659801    -1.437926
-1.900997    11.665543    -1.293602
-1.850353    9.217848    -1.118259
-1.904640    7.971099    -1.054083
-1.976200    7.114147    -1.022579
-1.087939    6.697533    -0.995798
-1.454974    5.239906    -0.958601
-4.776421    17.333965    -0.501599
-4.777976    17.362087    -1.162285
-1.919539    11.959102    -0.878624
-2.367182    11.946731    -1.000226
-2.851116    12.080195    -1.136360
-3.755597    13.665637    -1.437321
-1.861434    11.647762    -1.290991
-1.821487    9.220559    -1.117905
-1.881542    7.982697    -1.054849
-1.953840    7.118266    -1.022304
-1.068009    6.704747    -0.996379
-1.438891    5.244346    -0.958601
-4.726107    17.359147    -0.501906
-4.733327    17.408443    -1.164411
-1.861754    11.830940    -0.868784
-2.321937    11.909918    -0.996542
-2.762113    11.865808    -1.115391
-3.711829    13.670373    -1.436614
-1.833537    11.703504    -1.296540
-1.796221    9.241700    -1.119795
-1.852101    7.967179    -1.052042
-1.927326    7.107018    -1.019835
-1.047281    6.707014    -0.996234
-1.421249    5.243032    -0.957559
-4.671010    17.366809    -0.501710
-4.671354    17.391076    -1.162285
-1.833353    11.887854    -0.872546
-2.279192    11.884684    -0.993841
-2.730598    11.895579    -1.117397
-3.669098    13.678814    -1.436312
-1.786611    11.637348    -1.288597
-1.766927    9.242290    -1.119204
-1.824990    7.961222    -1.050511
-1.909101    7.126293    -1.021756
-1.026699    6.710196    -0.996234
-1.393948    5.205511    -0.949921
-4.610007    17.352074    -0.500874
-4.604925    17.356136    -1.159001
-2.245306    11.905333    -0.994987
-2.705740    11.955378    -1.122229
-3.625331    13.683275    -1.435605
-1.752526    11.653588    -1.289794
-1.739848    9.254499    -1.120031
-1.800557    7.966784    -1.050511
-1.889763    7.141693    -1.023127
-1.006255    6.714293    -0.996379
-1.377720    5.208811    -0.949747
-4.559541    17.376771    -0.501181
-1.746947    11.808109    -0.865890
-2.211314    11.925884    -0.996133
-2.669265    11.964595    -1.122320
-3.583082    13.693370    -1.435505
-1.714883    11.646125    -1.288380
-1.712892    9.267605    -1.120976
-1.778479    7.982919    -1.051914
-1.869096    7.152248    -1.023813
-0.985076    6.713433    -0.995798
-1.114497    6.049485    -0.961616
-1.367208    5.233976    -0.953566
-4.510722    17.408096    -0.501683
-2.672496    12.121130    -0.682436
-2.231719    12.245390    -1.022244
-2.621639    11.923124    -1.117670
-3.535579    13.683107    -1.433285
-1.679570    11.654283    -1.288706
-1.688710    9.296264    -1.123810
-1.755256    7.994150    -1.052680
-1.847639    7.159867    -1.024088
-0.963912    6.712505    -0.995217
-1.097693    6.062597    -0.963161
-0.712615    4.987259    -0.929812
-4.493219    17.562274    -0.505726
-2.630421    12.106831    -0.681173
-2.120177    11.839162    -0.987784
-2.591374    11.960310    -1.120405
-3.493337    13.692925    -1.433184
-1.645195    11.669224    -1.289794
-1.656169    9.278918    -1.121094
-1.731980    8.005314    -1.053445
-1.826154    7.167422    -1.024362
-0.942213    6.707593    -0.994056
-1.080991    6.076637    -0.964860
-0.695814    4.978709    -0.927815
-4.455229    17.638971    -0.507539
-2.591802    12.108009    -0.680789
-2.077456    11.809293    -0.984756
-2.548639    11.939960    -1.117761
-3.448153    13.691036    -1.431872
-1.608844    11.670278    -1.289359
-1.627694    9.283956    -1.121094
-1.703277    7.991190    -1.050894
-1.803672    7.171069    -1.024088
-0.921630    6.710452    -0.994056
-1.063534    6.086737    -0.965941
-0.681068    4.984718    -0.928541
-4.406171    17.672927    -0.508124
-2.579570    12.234122    -0.687432
-1.598700    11.804937    -0.864154
-2.055467    11.898107    -0.991631
-2.509127    11.934080    -1.116485
-3.404693    13.695757    -1.431267
-1.575023    11.689936    -1.290991
-1.597519    9.279119    -1.119913
-1.675084    7.978906    -1.048598
-1.780470    7.171762    -1.023402
-0.901565    6.717170    -0.994636
-1.045690    6.094840    -0.966713
-0.669936    5.017976    -0.934349
-4.359096    17.715480    -0.508961
-2.540197    12.233180    -0.686937
-2.002123    11.805113    -0.983364
-2.475127    11.954399    -1.117670
-3.357206    13.683914    -1.428946
-1.545378    11.742020    -1.296213
-1.570202    9.290830    -1.120740
-1.654212    8.001491    -1.050894
-1.757280    7.172381    -1.022716
-0.882110    6.728734    -0.995943
-1.031417    6.124325    -0.970884
-0.653013    5.008306    -0.932171
-4.306612    17.736542    -0.509184
-2.493053    12.193959    -0.684302
-1.970314    11.837744    -0.985574
-2.437047    11.955106    -1.117032
-3.310527    13.674811    -1.426928
-1.505672    11.718113    -1.293058
-1.539741    9.283849    -1.119322
-1.630249    8.009443    -1.051277
-1.727354    7.145003    -1.018052
-0.861463    6.731409    -0.995943
-1.012623    6.127461    -0.970884
-0.639134    5.021992    -0.934349
-4.248218    17.733146    -0.508710
-2.435340    12.100727    -0.678648
-1.498215    11.884461    -0.868929
-1.949567    11.939145    -0.993514
-2.427590    12.098242    -1.129705
-3.262780    13.660711    -1.424406
-1.467118    11.701964    -1.290773
-1.512527    9.296370    -1.120267
-1.608007    8.026078    -1.052807
-1.712779    7.181101    -1.022442
-0.839949    6.727147    -0.994927
-0.994136    6.132489    -0.971193
-0.621664    5.007339    -0.931264
-4.187816    17.720802    -0.507985
-2.356494    11.897557    -0.666845
-2.813047    11.921109    -0.790573
-1.893072    11.821072    -0.983201
-2.360753    11.955179    -1.115664
-3.211956    13.632890    -1.420471
-1.431451    11.708383    -1.290991
-1.481965    9.288219    -1.118732
-1.585870    8.043623    -1.054466
-1.691193    7.188251    -1.022716
-0.818708    6.724782    -0.994201
-0.975472    6.136486    -0.971347
-0.607599    5.019961    -0.933260
-0.487969    4.070893    -0.915489
-4.128437    17.712148    -0.507371
-2.296872    11.786144    -0.660202
-2.806772    12.059924    -0.799204
-1.884466    12.003064    -0.997852
-2.312478    11.902734    -1.110103
-3.166963    13.629112    -1.419058
-1.399522    11.746281    -1.294690
-1.451160    9.278005    -1.116960
-1.557974    8.031898    -1.052297
-1.667565    7.186651    -1.021756
-0.796441    6.713507    -0.992168
-0.956489    6.138474    -0.971193
-0.591619    5.016919    -0.932353
-0.473327    4.053952    -0.911349
-4.066241    17.690634    -0.506395
-2.766634    12.054861    -0.798302
-2.264548    11.850107    -1.104541
-2.729382    11.911615    -1.239355
-1.362676    11.743607    -1.293928
-1.422237    9.279469    -1.116606
-1.533697    8.038588    -1.052552
-1.647718    7.201389    -1.023127
-0.774251    6.702159    -0.990135
-0.936309    6.132589    -0.969802
-0.576337    5.019687    -0.932534
-0.458243    4.032112    -0.906119
-4.004877    17.671830    -0.505503
-2.746596    12.138238    -0.803262
-1.781817    11.822227    -0.981891
-2.231125    11.872658    -1.106000
-2.685152    11.885967    -1.235823
-1.330322    11.780329    -1.297519
-1.401133    9.332889    -1.122511
-1.504456    8.018885    -1.049363
-1.626270    7.209309    -1.023539
-0.755343    6.719250    -0.992313
-0.916468    6.128593    -0.968721
-0.558423    4.998953    -0.928360
-0.447693    4.049990    -0.909824
-0.368028    3.366429    -0.892030
-3.947809    17.671352    -0.505141
-2.684359    12.034598    -0.795855
-1.300623    11.769239    -0.858944
-1.756597    11.902571    -0.988112
-2.223817    12.037109    -1.120679
-2.644565    11.875698    -1.233906
-1.293849    11.781391    -1.297192
-1.365273    9.288021    -1.116606
-1.482905    8.040045    -1.051532
-1.605435    7.220066    -1.024362
-0.735586    6.729404    -0.993475
-0.897947    6.133331    -0.969030
-0.546906    5.035838    -0.934894
-0.437038    4.067841    -0.913528
-0.360967    3.398313    -0.900181
-3.889276    17.663855    -0.504583
-2.634141    11.982349    -0.791861
-1.266746    11.793999    -0.860464
-1.720215    11.908890    -0.988194
-2.237048    12.320182    -1.146389
-2.608331    11.884727    -1.234007
-1.255588    11.765536    -1.295016
-1.342851    9.334430    -1.121684
-1.453809    8.020158    -1.048343
-1.581368    7.216249    -1.023127
-0.715041    6.732613    -0.993620
-0.878286    6.130189    -0.968103
-0.533311    5.055096    -0.938161
-0.421923    4.043924    -0.907862
-0.350440    3.398443    -0.899926
-3.830191    17.653236    -0.503941
-2.136221    11.934002    -0.666570
-2.574550    11.885041    -0.784905
-1.229625    11.788902    -0.859813
-1.680603    11.892401    -0.986393
-2.117035    11.866220    -1.103538
-2.573750    11.901425    -1.234915
-1.222048    11.794052    -1.297736
-1.312132    9.323756    -1.119913
-1.429197    8.024580    -1.048343
-1.560476    7.226876    -1.023951
-0.695600    6.746586    -0.995362
-0.860160    6.137747    -0.968876
-0.515195    5.031273    -0.933442
-0.409514    4.045200    -0.907862
-0.338665    3.386031    -0.896360
-3.781656    17.691296    -0.504694
-2.069682    11.770371    -0.657073
-2.540574    11.904595    -0.785678
-1.197971    11.837273    -0.863068
-1.638516    11.857023    -0.983037
-2.079416    11.865793    -1.102900
-2.538469    11.915103    -1.235521
-1.182677    11.766095    -1.294255
-1.284874    9.337575    -1.121094
-1.407648    8.046514    -1.050639
-1.537473    7.227754    -1.023402
-0.673619    6.735890    -0.993475
-0.841191    6.139378    -0.968721
-0.500243    5.037723    -0.934349
-0.397007    4.045466    -0.907644
-0.330514    3.410154    -0.902473
-3.730451    17.717487    -0.505113
-2.500345    11.894755    -0.784519
-1.155514    11.778358    -0.858510
-1.571316    11.633841    -0.964129
-2.041989    11.866229    -1.102353
-2.502515    11.925756    -1.235823
-1.145417    11.757795    -1.292949
-1.257147    9.348362    -1.121921
-1.387824    8.079142    -1.054338
-1.516103    7.236315    -1.023951
-0.653523    6.743833    -0.994346
-0.822221    6.140951    -0.968567
-0.482431    5.014762    -0.929812
-0.383947    4.039863    -0.906119
-0.318153    3.390934    -0.897124
-3.674656    17.721998    -0.504917
-2.467684    11.920937    -0.785742
-1.119939    11.787805    -0.858944
-1.566775    11.874759    -0.983692
-2.004745    11.867528    -1.101897
-2.459271    11.901226    -1.232494
-1.111299    11.782038    -1.295234
-1.227556    9.345283    -1.121094
-1.363526    8.086296    -1.054721
-1.493695    7.239962    -1.023813
-0.633569    6.753687    -0.995508
-0.803761    6.146383    -0.969030
-0.950213    5.653222    -0.951789
-0.467226    5.018177    -0.930175
-0.619814    4.763008    -0.933293
-0.371551    4.041022    -0.906119
-0.309583    3.412118    -0.902473
-3.610271    17.684218    -0.503523
-2.415754    11.853160    -0.780783
-1.086234    11.818001    -0.860898
-1.530209    11.878521    -0.983610
-1.965233    11.854956    -1.100165
-2.411243    11.852169    -1.226642
-1.074154    11.774502    -1.294037
-1.196732    9.332261    -1.119086
-1.337740    8.084570    -1.053956
-1.469702    7.235774    -1.022579
-0.613025    6.757570    -0.995798
-0.786777    6.163521    -0.971347
-0.934951    5.668764    -0.953918
-0.452974    5.032319    -0.932534
-0.599632    4.721065    -0.924710
-0.357079    4.018812    -0.900889
-0.298100    3.401492    -0.899417
-3.555409    17.692271    -0.503439
-2.381340    11.870300    -0.781427
-1.043530    11.748754    -0.855616
-1.490030    11.853494    -0.981154
-1.927095    11.850117    -1.099162
-2.378191    11.876094    -1.228357
-1.036629    11.761898    -1.292296
-1.168588    9.339830    -1.119558
-1.315314    8.103321    -1.055869
-1.444972    7.227622    -1.020795
-0.591426    6.749563    -0.994346
-0.768597    6.171788    -0.972274
-0.916925    5.667710    -0.953263
-0.438640    5.046421    -0.934894
-0.583818    4.712167    -0.922612
-0.345248    4.025723    -0.902196
-0.285790    3.380228    -0.893558
-2.377770    12.043984    -0.792377
-1.010462    11.786682    -0.858149
-1.452808    11.851085    -0.980581
-1.897003    11.895311    -1.102809
-2.337512    11.861860    -1.226137
-1.002813    11.791767    -1.295234
-1.138486    9.331543    -1.118141
-1.289356    8.100462    -1.054976
-1.421452    7.225217    -1.019835
-0.571300    6.758247    -0.995362
-0.750016    6.177060    -0.972737
-0.901078    5.680240    -0.954901
-0.423648    5.053623    -0.935983
-0.569594    4.715885    -0.922993
-0.331850    4.014119    -0.899363
-0.275810    3.385908    -0.894832
-2.373726    12.220695    -0.803520
-0.975939    11.809606    -0.859596
-1.391613    11.647669    -0.963393
-1.866191    11.937478    -1.106183
-2.293346    11.828931    -1.222000
-0.963952    11.762093    -1.291644
-1.111141    9.345838    -1.119440
-1.264039    8.101440    -1.054593
-1.398714    7.226627    -1.019423
-0.550402    6.757995    -0.995072
-0.731293    6.181294    -0.973046
-0.885314    5.693700    -0.956702
-0.407826    5.050978    -0.935257
-0.557532    4.738083    -0.926999
-0.321469    4.039440    -0.904811
-0.448847    3.839264    -0.900861
-0.265270    3.384810    -0.894322
-1.806431    11.746967    -0.653450
-2.333788    12.215178    -0.802682
-0.930212    11.693236    -0.850914
-1.375456    11.820177    -0.977307
-1.819304    11.876211    -1.099983
-2.268040    11.893571    -1.227953
-0.929269    11.782833    -1.293602
-1.083263    9.356109    -1.120267
-1.235131    8.078808    -1.051149
-1.376351    7.229911    -1.019286
-0.529126    6.752747    -0.994056
-0.711761    6.178601    -0.972274
-0.866802    5.689562    -0.955556
-0.390348    5.026714    -0.930538
-0.545675    4.763178    -0.931576
-0.309447    4.045273    -0.905901
-0.440480    3.870620    -0.907897
-0.255611    3.395251    -0.896869
-1.785108    11.850202    -0.658885
-2.269399    12.079089    -0.793278
-0.895550    11.711947    -0.852071
-1.320118    11.655988    -0.963393
-1.788771    11.921129    -1.103630
-2.506036    13.364319    -1.379001
-0.890862    11.755892    -1.290338
-1.054442    9.358401    -1.120149
-1.208430    8.069808    -1.049491
-1.355440    7.240915    -1.020247
-0.508480    6.755325    -0.994201
-0.692361    6.176828    -0.971656
-0.851818    5.708782    -0.958340
-0.374924    5.027888    -0.930538
-0.531059    4.764829    -0.931576
-0.297178    4.048150    -0.906337
-0.428924    3.874858    -0.908578
-0.245820    3.404700    -0.899162
-0.354785    3.228275    -0.888291
-1.298428    11.787778    -0.973951
-1.747991    11.897988    -1.100986
-2.465745    13.375859    -1.379404
-0.857098    11.790296    -1.293820
-1.025402    9.358631    -1.119795
-1.183091    8.069552    -1.048980
-1.332681    7.242117    -1.019835
-0.487112    6.747972    -0.992894
-0.673194    6.176958    -0.971347
-0.834727    5.714297    -0.958832
-0.359497    5.029015    -0.930538
-0.516227    4.764484    -0.931195
-0.283867    4.036386    -0.903504
-0.416930    3.875187    -0.908351
-0.234039    3.386144    -0.894068
-0.343855    3.219757    -0.885652
-2.151214    11.850263    -0.777369
-1.270957    11.872967    -0.980663
-1.712898    11.913153    -1.101897
-2.423633    13.377486    -1.378799
-0.818298    11.755187    -1.289685
-0.993636    9.333098    -1.116369
-1.158329    8.073143    -1.048980
-1.309046    7.238373    -1.018737
-0.466611    6.752396    -0.993330
-0.654448    6.180960    -0.971656
-0.819286    5.731479    -0.961289
-0.344067    5.030094    -0.930538
-0.500271    4.753354    -0.928715
-0.271875    4.043081    -0.904811
-0.404736    3.873542    -0.907670
-0.223267    3.381056    -0.892539
-0.334771    3.228472    -0.887763
-1.663258    11.776159    -0.653889
-2.113096    11.846983    -0.776725
-1.226282    11.797506    -0.974115
-1.671348    11.882851    -1.098615
-2.381185    13.377023    -1.377992
-0.784606    11.793349    -1.293602
-0.966223    9.347955    -1.117787
-1.134382    8.082553    -1.049746
-1.285793    7.236504    -1.017914
-0.445893    6.753796    -0.993330
-0.634977    6.178025    -0.970884
-0.800605    5.726150    -0.959978
-0.328633    5.031126    -0.930538
-0.485287    4.750960    -0.927952
-0.259782    4.048766    -0.905901
-0.393832    3.884455    -0.909940
-0.213501    3.391376    -0.895086
-0.324382    3.224685    -0.886444
-1.637733    11.908640    -1.100530
-2.333794    13.348004    -1.374258
-0.744266    11.730225    -1.286421
-0.937441    9.349888    -1.117669
-1.110389    8.091890    -1.050511
-1.262053    7.231632    -1.016680
-0.425295    6.757107    -0.993620
-0.615628    6.176011    -0.970266
-0.781431    5.716851    -0.958013
-0.313318    5.034073    -0.930901
-0.470612    4.751450    -0.927762
-0.247062    4.044673    -0.904811
-0.380484    3.871106    -0.906535
-0.204078    3.408425    -0.899417
-0.316921    3.250626    -0.893303
-1.594292    11.862286    -1.095789
-2.290138    13.339412    -1.372644
-0.709712    11.756267    -1.289032
-0.909423    9.359638    -1.118495
-1.086745    8.104106    -1.051659
-1.242705    7.252068    -1.019012
-0.403912    6.747516    -0.992023
-0.595633    6.167053    -0.968567
-0.764149    5.721177    -0.958340
-0.297815    5.034029    -0.930719
-0.456501    4.757757    -0.928715
-0.236008    4.068796    -0.910041
-0.367221    3.857712    -0.903131
-0.192798    3.394553    -0.895596
-0.306221    3.243900    -0.891193
-1.998153    11.831490    -0.774471
-1.115207    11.782494    -0.971987
-1.556207    11.854286    -1.094604
-2.245730    13.325773    -1.370525
-0.676996    11.816942    -1.295452
-0.881262    9.368316    -1.119204
-1.067286    8.148706    -1.057017
-1.217985    7.241194    -1.016954
-0.382424    6.734894    -0.989990
-0.575790    6.159014    -0.967022
-0.744552    5.707843    -0.955720
-0.283801    5.060447    -0.935438
-0.442175    4.762068    -0.929288
-0.221704    4.036368    -0.902632
-0.355563    3.860760    -0.903585
-0.183316    3.412510    -0.900181
-0.293812    3.217928    -0.883806
-1.082597    11.824568    -0.975179
-1.525021    11.899503    -1.098342
-2.246067    13.581919    -1.396154
-0.642192    11.845765    -1.298389
-0.851257    9.357130    -1.117551
-1.036244    8.104719    -1.050894
-1.196086    7.246851    -1.017228
-0.361866    6.738011    -0.990280
-0.556714    6.158783    -0.966713
-0.726040    5.702271    -0.954409
-0.268014    5.056384    -0.934531
-0.427914    4.767313    -0.930050
-0.209219    4.035080    -0.902196
-0.344235    3.867654    -0.904946
-0.172014    3.396638    -0.895851
-0.287413    3.258209    -0.894622
-1.482205    11.853730    -1.093692
-2.211397    13.631956    -1.400593
-0.605745    11.845693    -1.298172
-0.822546    9.359697    -1.117551
-1.011374    8.107860    -1.050894
-1.174639    7.255376    -1.017914
-0.340692    6.729209    -0.988828
-0.537472    6.156525    -0.966096
-0.708907    5.707409    -0.954901
-0.252990    5.067005    -0.936346
-0.413201    4.767625    -0.929860
-0.562289    4.551661    -0.937004
-0.197504    4.049350    -0.905247
-0.333701    3.884217    -0.908578
-0.162098    3.407775    -0.898652
-0.276925    3.253309    -0.893039
-0.577205    11.841788    -0.860030
-1.448242    11.877992    -1.095515
-2.170815    13.646536    -1.401400
-0.568589    11.830616    -1.296322
-0.793155    9.354261    -1.116606
-0.986854    8.113878    -1.051277
-1.153462    7.265793    -1.018875
-0.319857    6.726269    -0.988248
-0.518665    6.159130    -0.966250
-0.690563    5.702702    -0.953754
-0.236983    5.057934    -0.934531
-0.399227    4.776696    -0.931386
-0.553710    4.598110    -0.946212
-0.184634    4.040187    -0.903068
-0.320175    3.865811    -0.904039
-0.152459    3.426612    -0.903492
-0.265838    3.240684    -0.889346
-1.829236    11.704268    -0.764616
-0.976091    11.862836    -0.977553
-1.410737    11.873480    -1.094695
-2.126945    13.640353    -1.400089
-0.532111    11.828333    -1.295887
-0.763806    9.348733    -1.115661
-0.961256    8.110958    -1.050511
-1.131927    7.274192    -1.019561
-0.299132    6.725242    -0.987957
-0.502323    6.192205    -0.971193
-0.671678    5.693037    -0.951789
-0.221379    5.056672    -0.934168
-0.383704    4.767136    -0.929288
-0.538459    4.590056    -0.944210
-0.172404    4.044635    -0.903940
-0.310404    3.892987    -0.910167
-0.140825    3.400010    -0.896360
-0.254604    3.225138    -0.884861
-1.822173    11.898233    -0.776918
-0.500332    11.746456    -0.852867
-1.372128    11.858956    -1.092963
-2.085538    13.649764    -1.400391
-0.495570    11.823950    -1.295234
-0.735744    9.358952    -1.116606
-0.936936    8.118796    -1.051149
-1.110948    7.286443    -1.020795
-0.278866    6.735025    -0.989264
-0.482401    6.181897    -0.969339
-0.654884    5.700951    -0.952771
-0.810654    5.320622    -0.948705
-0.205784    5.055362    -0.933805
-0.369228    4.770248    -0.929669
-0.525931    4.605315    -0.947012
-0.159455    4.031492    -0.900889
-0.298310    3.891978    -0.909713
-0.417220    3.656785    -0.895987
-0.130616    3.406224    -0.897888
-0.245511    3.236484    -0.887763
-1.779147    11.860344    -0.774084
-1.334068    11.848266    -1.091595
-2.046449    13.674794    -1.402309
-0.458945    11.816475    -1.294255
-0.706130    9.349283    -1.115188
-0.910806    8.110789    -1.049746
-1.088735    7.290797    -1.020932
-0.258543    6.744747    -0.990571
-0.464023    6.191229    -0.970575
-0.637281    5.701953    -0.952608
-0.792873    5.313344    -0.946969
-0.189941    5.047126    -0.932171
-0.353718    4.759611    -0.927380
-0.511258    4.602038    -0.946011
-0.147299    4.037814    -0.902196
-0.284939    3.873450    -0.905173
-0.405570    3.654186    -0.895041
-0.120267    3.409508    -0.898652
-0.236981    3.256462    -0.893039
-0.346802    3.132165    -0.895236
-1.297711    11.852304    -1.091595
-2.004630    13.681992    -1.402409
-0.420879    11.767162    -1.288706
-0.678950    9.372205    -1.117669
-0.883980    8.095798    -1.047450
-1.064499    7.281361    -1.019149
-0.237396    6.732654    -0.988683
-0.445310    6.196566    -0.971193
-0.619358    5.699959    -0.951952
-0.779842    5.338164    -0.950962
-0.174625    5.052598    -0.933079
-0.339394    4.764590    -0.928143
-0.496927    4.601637    -0.945611
-0.134911    4.038247    -0.902196
-0.272712    3.869448    -0.904039
-0.400298    3.710475    -0.908523
-0.109246    3.392463    -0.894068
-0.226587    3.251400    -0.891456
-0.330707    3.072960    -0.878020
-1.697963    11.812758    -0.770284
-0.392898    11.771497    -0.854386
-1.259025    11.834444    -1.089589
-1.961233    13.678230    -1.401400
-0.385685    11.796218    -1.291752
-0.653011    9.414859    -1.122511
-0.861022    8.116225    -1.049746
-1.042576    7.287534    -1.019561
-0.216676    6.731373    -0.988393
-0.426365    6.198889    -0.971347
-0.601868    5.701832    -0.951952
-0.764298    5.346381    -0.952004
-0.159371    5.060974    -0.934531
-0.324174    4.756795    -0.926426
-0.481683    4.592421    -0.943409
-0.122580    4.040593    -0.902632
-0.260446    3.864437    -0.902677
-0.388103    3.703956    -0.906631
-0.099317    3.409215    -0.898398
-0.218534    3.280953    -0.899371
-0.321578    3.076830    -0.878839
-1.221995    11.831316    -1.088951
-1.918016    13.675315    -1.400492
-0.348728    11.771511    -1.288924
-0.624189    9.417809    -1.122629
-0.836727    8.124749    -1.050511
-1.017742    7.273041    -1.017091
-0.195764    6.723105    -0.987086
-0.406956    6.194252    -0.970420
-0.587087    5.730148    -0.956375
-0.748164    5.350652    -0.952351
-0.143983    5.066354    -0.935438
-0.310152    4.766583    -0.928143
-0.466400    4.582181    -0.941007
-0.110210    4.041926    -0.902850
-0.248339    3.861330    -0.901769
-0.376541    3.703195    -0.906158
-0.088832    3.408537    -0.898143
-0.208650    3.284496    -0.900163
-0.317086    3.126611    -0.892776
-0.322590    11.844474    -0.859523
-1.184898    11.827082    -1.088222
-1.874700    13.671278    -1.399483
-0.311319    11.723833    -1.283593
-0.594979    9.414724    -1.122039
-0.812684    8.136160    -1.051659
-0.996095    7.281036    -1.017777
-0.175111    6.722685    -0.986941
-0.388321    6.201388    -0.971347
-0.569797    5.734867    -0.956866
-0.731478    5.350970    -0.952004
-0.128015    5.050059    -0.932353
-0.295588    4.768492    -0.928334
-0.453303    4.593340    -0.943009
-0.097950    4.048099    -0.904158
-0.236849    3.867906    -0.903131
-0.365940    3.712069    -0.908050
-0.077907    3.388492    -0.892794
-0.197816    3.272604    -0.896733
-0.306363    3.116081    -0.889497
-0.287094    11.880306    -0.862055
-1.147933    11.823724    -1.087584
-1.829180    13.650341    -1.396759
-0.275629    11.736659    -1.284898
-0.565675    9.409567    -1.121212
-0.789630    8.158359    -1.054211
-0.973359    7.281112    -1.017366
-0.154417    6.720223    -0.986505
-0.369470    6.205509    -0.971810
-0.551728    5.731679    -0.956047
-0.714537    5.349285    -0.951309
-0.112937    5.069108    -0.935801
-0.280784    4.766436    -0.927762
-0.437996    4.582030    -0.940407
-0.085407    4.042526    -0.902850
-0.225038    3.869587    -0.903358
-0.353349    3.700600    -0.904975
-0.067588    3.392582    -0.893813
-0.188548    3.286678    -0.900426
-0.298625    3.136159    -0.894962
-0.252895    11.987826    -0.869797
-0.676986    11.749888    -0.966585
-1.114542    11.857925    -1.090410
-1.788068    13.661808    -1.397364
-0.239559    11.734468    -1.284572
-0.536409    9.404318    -1.120385
-0.764596    8.160744    -1.054211
-0.950760    7.282100    -1.017091
-0.133622    6.711762    -0.985198
-0.350931    6.215491    -0.973200
-0.533500    5.726469    -0.954901
-0.697740    5.348522    -0.950789
-0.097196    5.059599    -0.933986
-0.265612    4.757474    -0.925854
-0.423937    4.583352    -0.940407
-0.073110    4.048624    -0.904158
-0.213004    3.867342    -0.902677
-0.341994    3.701667    -0.904975
-0.057082    3.386972    -0.892285
-0.176843    3.257383    -0.892248
-0.286355    3.108323    -0.886764
-1.520243    11.866119    -0.772152
-0.217122    12.044390    -0.873849
-0.639795    11.731012    -0.964866
-1.074371    11.819636    -1.086581
-1.744758    13.656373    -1.396254
-0.203385    11.725208    -1.283484
-0.507287    9.400961    -1.119795
-0.739467    8.162063    -1.054083
-0.929291    7.291861    -1.018052
-0.113113    6.717087    -0.985924
-0.331755    6.214565    -0.972891
-0.515132    5.719236    -0.953427
-0.682447    5.359430    -0.952351
-0.081594    5.054956    -0.933079
-0.249929    4.737681    -0.921849
-0.409088    4.575848    -0.938605
-0.060937    4.065419    -0.907862
-0.201442    3.873813    -0.904039
-0.330809    3.704634    -0.905448
-0.046384    3.364892    -0.886426
-0.167145    3.263690    -0.893831
-0.276647    3.107271    -0.886218
-0.177440    11.862500    -0.860608
-0.607336    11.801597    -0.970514
-1.703222    13.664624    -1.396557
-0.167284    11.716831    -1.282505
-0.478442    9.402474    -1.119795
-0.713903    8.158365    -1.053318
-0.907893    7.302541    -1.019149
-0.092546    6.720371    -0.986360
-0.312340    6.208647    -0.971810
-0.498011    5.725703    -0.954245
-0.666244    5.363453    -0.952698
-0.066111    5.057150    -0.933442
-0.235539    4.741367    -0.922421
-0.395048    4.577082    -0.938605
-0.520047    4.184736    -0.905262
-0.048406    4.060707    -0.906773
-0.189842    3.880249    -0.905400
-0.318274    3.692079    -0.902137
-0.036091    3.367919    -0.887190
-0.157456    3.270932    -0.895678
-0.267195    3.109064    -0.886491
-0.140239    11.795171    -0.855689
-0.573053    11.843224    -0.973788
-1.003592    11.846843    -1.088495
-1.661412    13.670773    -1.396658
-0.131403    11.723253    -1.283157
-0.449831    9.408857    -1.120385
-0.688871    8.160516    -1.053318
-0.887392    7.321026    -1.021344
-0.071949    6.722601    -0.986650
-0.292126    6.184903    -0.967949
-0.480030    5.722289    -0.953427
-0.649550    5.363517    -0.952351
-0.050605    5.058312    -0.933623
-0.220626    4.734222    -0.920895
-0.380678    4.574367    -0.937804
-0.510852    4.216402    -0.911769
-0.035896    4.054981    -0.905465
-0.177267    3.866220    -0.901996
-0.306221    3.684324    -0.900008
-0.025803    3.373816    -0.888718
-0.147072    3.263691    -0.893567
-0.256623    3.097406    -0.882938
-1.404492    11.825106    -0.768609
-0.103779    11.764628    -0.853446
-0.531167    11.722465    -0.963720
-0.970077    11.884605    -1.091686
-1.619463    13.675805    -1.396658
-0.095290    11.705709    -1.281199
-0.421407    9.420112    -1.121566
-0.663027    8.152706    -1.052042
-0.864695    7.321746    -1.021070
-0.051309    6.720812    -0.986360
-0.272975    6.181822    -0.967331
-0.463743    5.739467    -0.956047
-0.632053    5.356682    -0.950789
-0.035079    5.057460    -0.933442
-0.206442    4.742722    -0.922421
-0.366486    4.573560    -0.937404
-0.498143    4.219891    -0.912189
-0.023359    4.038481    -0.901760
-0.165322    3.864800    -0.901542
-0.294683    3.682340    -0.899298
-0.015479    3.379681    -0.890247
-0.136695    3.255453    -0.891193
-0.248649    3.117357    -0.888404
-1.368665    11.833324    -0.768867
-0.068373    11.884574    -0.862128
-0.498271    11.796729    -0.969695
-0.933767    11.889512    -1.091869
-1.576928    13.675767    -1.396154
-0.058984    11.628411    -1.272713
-0.392174    9.413424    -1.120621
-0.637625    8.149757    -1.051404
-0.841096    7.314524    -1.019698
-0.030911    6.769418    -0.993475
-0.254292    6.189541    -0.968412
-0.446285    5.742830    -0.956375
-0.614492    5.348812    -0.949053
-0.019552    5.054594    -0.932897
-0.192089    4.748238    -0.923375
-0.352603    4.576617    -0.937804
-0.485864    4.227228    -0.913448
-0.010967    4.037557    -0.901543
-0.153618    3.869181    -0.902450
-0.283534    3.685164    -0.899771
-0.413531    3.607893    -0.923097
-0.005114    3.382614    -0.891011
-0.127419    3.274170    -0.896205
-0.239157    3.119064    -0.888677
-1.334587    11.857301    -0.770155
-0.031906    11.882734    -0.861983
-0.462935    11.820112    -0.971496
-0.898710    11.911188    -1.093601
-1.535741    13.687462    -1.396860
-0.023247    11.597721    -1.269340
-0.364325    9.441374    -1.123810
-0.612099    8.144752    -1.050511
-0.817550    7.307226    -1.018326
-0.010168    6.786300    -0.995943
-0.235414    6.193254    -0.968876
-0.428224    5.738270    -0.955392
-0.597860    5.348714    -0.948705
-0.004041    5.050697    -0.932171
-0.177924    4.759595    -0.925473
-0.339284    4.587448    -0.939806
-0.473328    4.232585    -0.914288
0.001413    4.017077    -0.896966
-0.142175    3.881313    -0.905173
-0.272799    3.693769    -0.901663
-0.394190    3.534978    -0.904128
0.005264    3.382614    -0.891011
-0.117132    3.267798    -0.894358
-0.228316    3.102515    -0.883758
-0.335218    3.001379    -0.891940
0.004592    11.993485    -0.870014
-0.424368    11.757733    -0.966257
-0.861228    11.900976    -1.092416
-1.490828    13.665406    -1.394136
0.012317    11.580839    -1.267491
-0.334865    9.428554    -1.122157
-0.587964    8.158463    -1.052042
-0.794807    7.306746    -1.017914
0.010640    6.778384    -0.994782
-0.216516    6.196909    -0.969339
-0.409773    5.727749    -0.953427
-0.582299    5.358356    -0.950094
0.011434    5.041835    -0.930538
-0.163153    4.755213    -0.924519
-0.325901    4.598240    -0.941808
-0.460446    4.234989    -0.914498
0.013781    4.029741    -0.899799
-0.129646    3.863237    -0.900861
-0.262220    3.705249    -0.904265
-0.383448    3.537134    -0.904374
0.015641    3.382582    -0.891011
-0.107422    3.277782    -0.896997
-0.220488    3.127190    -0.890590
-0.325284    2.995719    -0.889957
0.040975    11.873729    -0.861332
-0.389511    11.795835    -0.969286
-0.819000    11.821106    -1.084848
-1.447533    13.657053    -1.392824
0.047649    11.533031    -1.262268
-0.305486    9.415642    -1.120503
-0.562385    8.152313    -1.051021
-0.772490    7.310135    -1.018052
0.031390    6.768426    -0.993330
-0.197440    6.195569    -0.969030
-0.391592    5.720121    -0.951952
-0.567511    5.375787    -0.952872
0.026881    5.037842    -0.929812
-0.148962    4.768447    -0.926999
-0.310533    4.580645    -0.938005
-0.447553    4.237354    -0.914708
0.026156    4.031631    -0.900235
-0.118001    3.870431    -0.902450
-0.251638    3.717669    -0.907104
-0.372188    3.534438    -0.903389
0.025870    3.363178    -0.885916
-0.096764    3.257849    -0.891456
-0.206751    3.066427    -0.873101
-0.316393    2.999564    -0.890807
-1.216278    11.780736    -0.764422
0.077435    11.878534    -0.861694
-0.355200    11.859735    -0.974443
-0.779177    11.769905    -1.079925
-1.403997    13.645596    -1.391210
0.082781    11.498040    -1.258460
-0.276510    9.413558    -1.120149
-0.536719    8.144102    -1.049746
-0.750565    7.317397    -1.018737
0.052102    6.761372    -0.992313
-0.178289    6.191207    -0.968258
-0.373912    5.719327    -0.951625
-0.551016    5.377503    -0.952872
0.042279    5.030853    -0.928541
-0.134331    4.768881    -0.926999
-0.296098    4.575710    -0.936804
-0.435449    4.247461    -0.916597
0.038507    4.029580    -0.899799
-0.105779    3.858119    -0.899499
-0.239355    3.704850    -0.903792
-0.361146    3.533635    -0.902896
0.036209    3.365017    -0.886426
-0.085998    3.229204    -0.883542
-0.199134    3.094885    -0.881026
-0.307385    3.002429    -0.891373
-1.180129    11.784413    -0.764422
0.114604    11.954039    -0.867192
-0.750529    11.890509    -1.090775
-1.361732    13.645878    -1.390806
0.118148    11.506677    -1.259440
-0.247106    9.394508    -1.117787
-0.512104    8.151650    -1.050511
-0.730073    7.339379    -1.021481
0.072749    6.752276    -0.991006
-0.159116    6.184811    -0.967177
-0.355934    5.713555    -0.950478
-0.534905    5.383088    -0.953566
0.057702    5.029716    -0.928360
-0.119478    4.760439    -0.925282
-0.281818    4.572686    -0.936003
-0.420771    4.232237    -0.913028
0.051041    4.043106    -0.902850
-0.094392    3.876924    -0.903812
-0.227211    3.692959    -0.900717
-0.348009    3.511580    -0.896983
0.046613    3.370691    -0.887954
-0.076022    3.226560    -0.882750
-0.190991    3.117565    -0.887311
-0.297509    2.996677    -0.889391
-1.145416    11.802877    -0.765389
0.150294    11.875841    -0.861549
-0.284108    11.932433    -0.980254
-0.707660    11.786393    -1.081019
-1.320722    13.658905    -1.391714
0.153092    11.479424    -1.256502
-0.218122    9.388273    -1.116960
-0.486324    8.140312    -1.048853
-0.708788    7.354402    -1.023265
0.093369    6.745097    -0.989990
-0.140029    6.180332    -0.966405
-0.339628    5.735300    -0.953918
